ply
format ascii 1.0
comment File exported by Rhinoceros Version 8
element vertex 1296
property float x
property float y
property float z
property uchar red
property uchar green
property uchar blue
end_header
-20.71875 29.085938 0.752944 200 0 0
-20.71875 29.484375 0.470592 200 0 0
-20.71875 29.882813 0.439216 200 0 0
-20.71875 30.28125 0.674512 200 0 0
-20.71875 30.679688 0.219608 200 0 0
-20.71875 31.078125 0.658824 200 0 0
-20.71875 31.476563 0.047056 200 0 0
-20.71875 31.875 1.035296 200 0 0
-20.71875 32.273438 1.19216 200 0 0
-20.71875 32.671875 0.972552 200 0 0
-20.71875 33.070313 0.031376 200 0 0
-20.71875 33.46875 0.423528 200 0 0
-20.71875 33.867188 0.988232 200 0 0
-20.71875 34.265625 0.486272 200 0 0
-20.71875 34.664063 0.89412 200 0 0
-20.71875 35.0625 0.658824 200 0 0
-20.71875 35.460938 0.015688 200 0 0
-20.71875 35.859375 0.125488 200 0 0
-20.71875 36.257813 0.517648 200 0 0
-20.71875 36.65625 0.988232 200 0 0
-20.71875 37.054688 0.972552 200 0 0
-20.71875 37.453125 0.015688 200 0 0
-20.71875 37.851563 0.282352 200 0 0
-20.71875 38.25 0.470592 200 0 0
-20.71875 38.648438 0.09412 200 0 0
-20.71875 39.046875 0.486272 200 0 0
-20.71875 39.445313 0.09412 200 0 0
-20.71875 39.84375 1.19216 200 0 0
-20.71875 40.242188 0.09412 200 0 0
-20.71875 40.640625 0.70588 200 0 0
-20.71875 41.039063 0.439216 200 0 0
-20.71875 41.4375 0.188232 200 0 0
-20.71875 41.835938 0.925488 200 0 0
-20.71875 42.234375 0.188232 200 0 0
-20.71875 42.632813 0.674512 200 0 0
-20.71875 43.03125 0.423528 200 0 0
-20.71875 43.429688 0.486272 200 0 0
-20.71875 43.828125 0.674512 200 0 0
-20.71875 44.226563 0.486272 200 0 0
-20.71875 44.625 0.752944 200 0 0
-20.71875 45.023438 0.125488 200 0 0
-20.71875 45.421875 0.345096 200 0 0
-20.320313 -45.421875 0.470592 200 0 0
-20.320313 -45.023438 0.376472 200 0 0
-20.320313 -44.625 0.062744 200 0 0
-20.320313 -44.226563 0.047056 200 0 0
-20.320313 -43.828125 1.537256 200 0 0
-20.320313 -43.429688 0.862744 200 0 0
-20.320313 -43.03125 0.015688 200 0 0
-20.320313 -42.632813 0.1098 200 0 0
-20.320313 -42.234375 0.078432 200 0 0
-20.320313 -41.835938 0.941176 200 0 0
-20.320313 -41.4375 1.50588 200 0 0
-20.320313 -41.039063 0.50196 200 0 0
-20.320313 -40.640625 0.972552 200 0 0
-20.320313 -40.242188 0.674512 200 0 0
-20.320313 -39.84375 0.09412 200 0 0
-20.320313 -39.445313 0.125488 200 0 0
-20.320313 -39.046875 0.831376 200 0 0
-20.320313 -38.648438 0.09412 200 0 0
-20.320313 -38.25 0.674512 200 0 0
-20.320313 -37.851563 0.674512 200 0 0
-20.320313 -37.453125 0.9098 200 0 0
-20.320313 -37.054688 0.784312 200 0 0
-20.320313 -36.65625 0.768624 200 0 0
-20.320313 -36.257813 0.674512 200 0 0
-20.320313 -35.859375 0.078432 200 0 0
-20.320313 -35.460938 1.317648 200 0 0
-20.320313 -35.0625 0.972552 200 0 0
-20.320313 -34.664063 0.8 200 0 0
-20.320313 -34.265625 0.643136 200 0 0
-20.320313 -33.867188 0.847056 200 0 0
-20.320313 -33.46875 0.219608 200 0 0
-20.320313 -33.070313 0.972552 200 0 0
-20.320313 -32.671875 0.721568 200 0 0
-20.320313 -32.273438 0.156864 200 0 0
-20.320313 -31.875 0.564704 200 0 0
-20.320313 -31.476563 0.564704 200 0 0
-20.320313 -31.078125 0.517648 200 0 0
-20.320313 -30.679688 0.439216 200 0 0
-20.320313 -30.28125 0.674512 200 0 0
-20.320313 -29.882813 1.09804 200 0 0
-20.320313 -29.484375 0.6902 200 0 0
-20.320313 -29.085938 0.062744 200 0 0
-20.320313 -28.6875 0.470592 200 0 0
-20.320313 -28.289063 0.172552 200 0 0
-20.320313 -27.890625 0.768624 200 0 0
-20.320313 -27.492188 0.235296 200 0 0
-20.320313 -27.09375 1.160784 200 0 0
-20.320313 -26.695313 0.423528 200 0 0
-20.320313 -26.296875 0.470592 200 0 0
-20.320313 -25.898438 0.141176 200 0 0
-20.320313 -25.5 0.141176 200 0 0
-20.320313 -25.101563 1.788232 200 0 0
-20.320313 -24.703125 0.062744 200 0 0
-20.320313 -24.304688 1.176472 200 0 0
-20.320313 -23.90625 0.125488 200 0 0
-20.320313 -23.507813 0.062744 200 0 0
-20.320313 -23.109375 1.082352 200 0 0
-20.320313 -22.710938 0.015688 200 0 0
-20.320313 -22.3125 0.454904 200 0 0
-20.320313 -21.914063 0.470592 200 0 0
-20.320313 -21.515625 0.70588 200 0 0
-20.320313 -21.117188 0.09412 200 0 0
-20.320313 -20.71875 0.1098 200 0 0
-20.320313 -20.320313 0.925488 200 0 0
-20.320313 -19.921875 0.549016 200 0 0
-20.320313 -19.523438 1.050984 200 0 0
-20.320313 -19.125 0.439216 200 0 0
-20.320313 -18.726563 0.721568 200 0 0
-20.320313 -18.328125 0.188232 200 0 0
-20.320313 -17.929688 0.59608 200 0 0
-20.320313 -17.53125 1.537256 200 0 0
-20.320313 -17.132813 0.784312 200 0 0
-20.320313 -16.734375 0.40784 200 0 0
-20.320313 -16.335938 0.972552 200 0 0
-20.320313 -15.9375 0.313728 200 0 0
-20.320313 -15.539063 1.835296 200 0 0
-20.320313 -15.140625 1.349016 200 0 0
-20.320313 -14.742188 1.69412 200 0 0
-20.320313 -14.34375 0.266664 200 0 0
-20.320313 -13.945313 1.223528 200 0 0
-20.320313 -13.546875 1.552944 200 0 0
-20.320313 -13.148438 0.39216 200 0 0
-20.320313 -12.75 0.70588 200 0 0
-20.320313 -12.351563 1.39608 200 0 0
-20.320313 -11.953125 1.474512 200 0 0
-20.320313 -11.554688 1.333336 200 0 0
-20.320313 -11.15625 0.70588 200 0 0
-20.320313 -10.757813 0.20392 200 0 0
-20.320313 -10.359375 0.674512 200 0 0
-20.320313 -9.960938 0.486272 200 0 0
-20.320313 -9.5625 1.427448 200 0 0
-20.320313 -9.164063 0.329408 200 0 0
-20.320313 -8.765625 1.066664 200 0 0
-20.320313 -8.367188 0.941176 200 0 0
-20.320313 -7.96875 1.364704 200 0 0
-20.320313 -7.570313 1.09804 200 0 0
-20.320313 -7.171875 1.411768 200 0 0
-20.320313 -6.773438 1.333336 200 0 0
-20.320313 -6.375 0.941176 200 0 0
-20.320313 -5.976563 1.035296 200 0 0
-20.320313 -5.578125 0.768624 200 0 0
-20.320313 -5.179688 1.7098 200 0 0
-20.320313 -4.78125 0.345096 200 0 0
-20.320313 -4.382813 1.427448 200 0 0
-20.320313 -3.984375 1.239216 200 0 0
-20.320313 -3.585938 2.60392 200 0 0
-20.320313 -3.1875 2.917648 200 0 0
-20.320313 -2.789063 2.19608 200 0 0
-20.320313 -2.390625 1.4902 200 0 0
-20.320313 -1.992188 2.211768 200 0 0
-20.320313 -1.59375 3.764704 200 0 0
-20.320313 -1.195313 2.776472 200 0 0
-20.320313 -0.796875 2.776472 200 0 0
-20.320313 -0.398438 0.580392 200 0 0
-20.320313 0 1.882352 200 0 0
-20.320313 0.398437 2.682352 200 0 0
-20.320313 0.796875 2.682352 200 0 0
-20.320313 1.195312 1.741176 200 0 0
-20.320313 1.59375 2.478432 200 0 0
-20.320313 1.992187 1.647056 200 0 0
-20.320313 2.390625 0.784312 200 0 0
-20.320313 2.789062 2.635296 200 0 0
-20.320313 3.1875 1.160784 200 0 0
-20.320313 3.585937 0.862744 200 0 0
-20.320313 3.984375 0.6902 200 0 0
-20.320313 4.382812 2.243136 200 0 0
-20.320313 4.78125 1.349016 200 0 0
-20.320313 5.179687 1.19216 200 0 0
-20.320313 5.578125 0.470592 200 0 0
-20.320313 5.976562 1.678432 200 0 0
-20.320313 6.375 0.721568 200 0 0
-20.320313 6.773437 0.219608 200 0 0
-20.320313 7.171875 1.4902 200 0 0
-20.320313 7.570312 1.662744 200 0 0
-20.320313 7.96875 2.00784 200 0 0
-20.320313 8.367187 1.960784 200 0 0
-20.320313 8.765625 2.023528 200 0 0
-20.320313 9.164062 1.99216 200 0 0
-20.320313 9.5625 0.59608 200 0 0
-20.320313 9.960937 1.270592 200 0 0
-20.320313 10.359375 0.062744 200 0 0
-20.320313 10.757812 0.815688 200 0 0
-20.320313 11.15625 1.254904 200 0 0
-20.320313 11.554687 1.20784 200 0 0
-20.320313 11.953125 0.878432 200 0 0
-20.320313 12.351562 0.721568 200 0 0
-20.320313 12.75 0.6902 200 0 0
-20.320313 13.148437 1.929408 200 0 0
-20.320313 13.546875 0.439216 200 0 0
-20.320313 13.945312 0.564704 200 0 0
-20.320313 14.34375 0.549016 200 0 0
-20.320313 14.742187 0.470592 200 0 0
-20.320313 15.140625 0.988232 200 0 0
-20.320313 15.539062 0.941176 200 0 0
-20.320313 15.9375 0.360784 200 0 0
-20.320313 16.335937 0.878432 200 0 0
-20.320313 16.734375 0.611768 200 0 0
-20.320313 17.132812 1.317648 200 0 0
-20.320313 17.53125 0.564704 200 0 0
-20.320313 17.929687 0.643136 200 0 0
-20.320313 18.328125 1.349016 200 0 0
-20.320313 18.726562 0.627448 200 0 0
-20.320313 19.125 0.831376 200 0 0
-20.320313 19.523438 0.454904 200 0 0
-20.320313 19.921875 0.360784 200 0 0
-20.320313 20.320313 0.517648 200 0 0
-20.320313 20.71875 0.6902 200 0 0
-20.320313 21.117188 1.270592 200 0 0
-20.320313 21.515625 0.878432 200 0 0
-20.320313 21.914063 0.831376 200 0 0
-20.320313 22.3125 0.125488 200 0 0
-20.320313 22.710938 0.09412 200 0 0
-20.320313 23.109375 0.59608 200 0 0
-20.320313 23.507813 0.125488 200 0 0
-20.320313 23.90625 0.549016 200 0 0
-20.320313 24.304688 0.956864 200 0 0
-20.320313 24.703125 0.674512 200 0 0
-20.320313 25.101563 0.172552 200 0 0
-20.320313 25.5 0.89412 200 0 0
-20.320313 25.898438 0.564704 200 0 0
-20.320313 26.296875 0.721568 200 0 0
-20.320313 26.695313 1.019608 200 0 0
-20.320313 27.09375 0.047056 200 0 0
-20.320313 27.492188 0 200 0 0
-20.320313 27.890625 0.831376 200 0 0
-20.320313 28.289063 1.019608 200 0 0
-20.320313 28.6875 1.223528 200 0 0
-20.320313 29.085938 0.125488 200 0 0
-20.320313 29.484375 0.549016 200 0 0
-20.320313 29.882813 1.286272 200 0 0
-20.320313 30.28125 0.1098 200 0 0
-20.320313 30.679688 0.6902 200 0 0
-20.320313 31.078125 1.019608 200 0 0
-20.320313 31.476563 0.470592 200 0 0
-20.320313 31.875 0.1098 200 0 0
-20.320313 32.273438 0.533336 200 0 0
-20.320313 32.671875 0 200 0 0
-20.320313 33.070313 1.662744 200 0 0
-20.320313 33.46875 0.439216 200 0 0
-20.320313 33.867188 1.317648 200 0 0
-20.320313 34.265625 0.470592 200 0 0
-20.320313 34.664063 0.015688 200 0 0
-20.320313 35.0625 0.266664 200 0 0
-20.320313 35.460938 1.113728 200 0 0
-20.320313 35.859375 0.70588 200 0 0
-20.320313 36.257813 0.972552 200 0 0
-20.320313 36.65625 0.313728 200 0 0
-20.320313 37.054688 0.674512 200 0 0
-20.320313 37.453125 0.70588 200 0 0
-20.320313 37.851563 0.09412 200 0 0
-20.320313 38.25 0.89412 200 0 0
-20.320313 38.648438 0.1098 200 0 0
-20.320313 39.046875 0.329408 200 0 0
-20.320313 39.445313 0.1098 200 0 0
-20.320313 39.84375 0.674512 200 0 0
-20.320313 40.242188 0.470592 200 0 0
-20.320313 40.640625 0.062744 200 0 0
-20.320313 41.039063 0.847056 200 0 0
-20.320313 41.4375 0.454904 200 0 0
-20.320313 41.835938 0.313728 200 0 0
-20.320313 42.234375 0.047056 200 0 0
-20.320313 42.632813 0.737256 200 0 0
-20.320313 43.03125 0.721568 200 0 0
-20.320313 43.429688 0.470592 200 0 0
-20.320313 43.828125 0.831376 200 0 0
-20.320313 44.226563 0 200 0 0
-20.320313 44.625 0.847056 200 0 0
-20.320313 45.023438 0.533336 200 0 0
-20.320313 45.421875 1.145096 200 0 0
-19.921875 -45.820313 0.047056 200 0 0
-19.921875 -45.421875 0 200 0 0
-19.921875 -45.023438 0.376472 200 0 0
-19.921875 -44.625 0.674512 200 0 0
-19.921875 -44.226563 0.470592 200 0 0
-19.921875 -43.828125 0 200 0 0
-19.921875 -43.429688 0.09412 200 0 0
-19.921875 -43.03125 0.70588 200 0 0
-19.921875 -42.632813 0.611768 200 0 0
-19.921875 -42.234375 0.250984 200 0 0
-19.921875 -41.835938 0.1098 200 0 0
-19.921875 -41.4375 0.031376 200 0 0
-19.921875 -41.039063 0.941176 200 0 0
-19.921875 -40.640625 1.239216 200 0 0
-19.921875 -40.242188 0.50196 200 0 0
-19.921875 -39.84375 0.988232 200 0 0
-19.921875 -39.445313 0.125488 200 0 0
-19.921875 -39.046875 0.470592 200 0 0
-19.921875 -38.648438 0.282352 200 0 0
-19.921875 -38.25 0.439216 200 0 0
-19.921875 -37.851563 0.50196 200 0 0
-19.921875 -37.453125 0.141176 200 0 0
-19.921875 -37.054688 0.674512 200 0 0
-19.921875 -36.65625 0.768624 200 0 0
-19.921875 -36.257813 0.282352 200 0 0
-19.921875 -35.859375 0.125488 200 0 0
-19.921875 -35.460938 0.847056 200 0 0
-19.921875 -35.0625 0.09412 200 0 0
-19.921875 -34.664063 0.831376 200 0 0
-19.921875 -34.265625 1.019608 200 0 0
-19.921875 -33.867188 1.30196 200 0 0
-19.921875 -33.46875 0.047056 200 0 0
-19.921875 -33.070313 0.831376 200 0 0
-19.921875 -32.671875 0.09412 200 0 0
-19.921875 -32.273438 0.768624 200 0 0
-19.921875 -31.875 0.580392 200 0 0
-19.921875 -31.476563 0.517648 200 0 0
-19.921875 -31.078125 0.549016 200 0 0
-19.921875 -30.679688 0.956864 200 0 0
-19.921875 -30.28125 0 200 0 0
-19.921875 -29.882813 0.345096 200 0 0
-19.921875 -29.484375 0.376472 200 0 0
-19.921875 -29.085938 0.156864 200 0 0
-19.921875 -28.6875 0.439216 200 0 0
-19.921875 -28.289063 0.643136 200 0 0
-19.921875 -27.890625 0.643136 200 0 0
-19.921875 -27.492188 0.517648 200 0 0
-19.921875 -27.09375 0.125488 200 0 0
-19.921875 -26.695313 1.223528 200 0 0
-19.921875 -26.296875 0.643136 200 0 0
-19.921875 -25.898438 0.470592 200 0 0
-19.921875 -25.5 0.50196 200 0 0
-19.921875 -25.101563 0.59608 200 0 0
-19.921875 -24.703125 0.862744 200 0 0
-19.921875 -24.304688 0.470592 200 0 0
-19.921875 -23.90625 0.611768 200 0 0
-19.921875 -23.507813 0.454904 200 0 0
-19.921875 -23.109375 0.078432 200 0 0
-19.921875 -22.710938 0.360784 200 0 0
-19.921875 -22.3125 0.815688 200 0 0
-19.921875 -21.914063 0.658824 200 0 0
-19.921875 -21.515625 0.564704 200 0 0
-19.921875 -21.117188 0.721568 200 0 0
-19.921875 -20.71875 0.172552 200 0 0
-19.921875 -20.320313 1.223528 200 0 0
-19.921875 -19.921875 0.219608 200 0 0
-19.921875 -19.523438 0.470592 200 0 0
-19.921875 -19.125 1.129408 200 0 0
-19.921875 -18.726563 0.219608 200 0 0
-19.921875 -18.328125 0.580392 200 0 0
-19.921875 -17.929688 0.047056 200 0 0
-19.921875 -17.53125 0.831376 200 0 0
-19.921875 -17.132813 1.69412 200 0 0
-19.921875 -16.734375 0.674512 200 0 0
-19.921875 -16.335938 0.09412 200 0 0
-19.921875 -15.9375 1.286272 200 0 0
-19.921875 -15.539063 0.172552 200 0 0
-19.921875 -15.140625 1.474512 200 0 0
-19.921875 -14.742188 1.411768 200 0 0
-19.921875 -14.34375 0.862744 200 0 0
-19.921875 -13.945313 0.643136 200 0 0
-19.921875 -13.546875 0.125488 200 0 0
-19.921875 -13.148438 1.317648 200 0 0
-19.921875 -12.75 0.219608 200 0 0
-19.921875 -12.351563 0.941176 200 0 0
-19.921875 -11.953125 1.035296 200 0 0
-19.921875 -11.554688 1.411768 200 0 0
-19.921875 -11.15625 1.364704 200 0 0
-19.921875 -10.757813 1.30196 200 0 0
-19.921875 -10.359375 0.752944 200 0 0
-19.921875 -9.960938 1.678432 200 0 0
-19.921875 -9.5625 1.4902 200 0 0
-19.921875 -9.164063 2.086272 200 0 0
-19.921875 -8.765625 1.19216 200 0 0
-19.921875 -8.367188 0.941176 200 0 0
-19.921875 -7.96875 0.266664 200 0 0
-19.921875 -7.570313 0.658824 200 0 0
-19.921875 -7.171875 0.752944 200 0 0
-19.921875 -6.773438 0.658824 200 0 0
-19.921875 -6.375 0.988232 200 0 0
-19.921875 -5.976563 2.666664 200 0 0
-19.921875 -5.578125 1.584312 200 0 0
-19.921875 -5.179688 0.89412 200 0 0
-19.921875 -4.78125 1.99216 200 0 0
-19.921875 -4.382813 1.568624 200 0 0
-19.921875 -3.984375 3.623528 200 0 0
-19.921875 -3.585938 2.149016 200 0 0
-19.921875 -3.1875 2.337256 200 0 0
-19.921875 -2.789063 1.89804 200 0 0
-19.921875 -2.390625 1.474512 200 0 0
-19.921875 -1.992188 2.2902 200 0 0
-19.921875 -1.59375 2.635296 200 0 0
-19.921875 -1.195313 1.317648 200 0 0
-19.921875 -0.796875 2.525488 200 0 0
-19.921875 -0.398438 0.988232 200 0 0
-19.921875 0 1.882352 200 0 0
-19.921875 0.398437 2.054904 200 0 0
-19.921875 0.796875 2.917648 200 0 0
-19.921875 1.195312 1.69412 200 0 0
-19.921875 1.59375 2.650984 200 0 0
-19.921875 1.992187 2.80784 200 0 0
-19.921875 2.390625 0.815688 200 0 0
-19.921875 2.789062 0.768624 200 0 0
-19.921875 3.1875 1.835296 200 0 0
-19.921875 3.585937 1.725488 200 0 0
-19.921875 3.984375 0.70588 200 0 0
-19.921875 4.382812 1.521568 200 0 0
-19.921875 4.78125 0.423528 200 0 0
-19.921875 5.179687 1.349016 200 0 0
-19.921875 5.578125 1.99216 200 0 0
-19.921875 5.976562 1.662744 200 0 0
-19.921875 6.375 0.8 200 0 0
-19.921875 6.773437 1.09804 200 0 0
-19.921875 7.171875 1.929408 200 0 0
-19.921875 7.570312 0.878432 200 0 0
-19.921875 7.96875 1.850984 200 0 0
-19.921875 8.367187 2.447056 200 0 0
-19.921875 8.765625 1.662744 200 0 0
-19.921875 9.164062 0.70588 200 0 0
-19.921875 9.5625 1.929408 200 0 0
-19.921875 9.960937 1.254904 200 0 0
-19.921875 10.359375 1.80392 200 0 0
-19.921875 10.757812 0.20392 200 0 0
-19.921875 11.15625 0.250984 200 0 0
-19.921875 11.554687 1.69412 200 0 0
-19.921875 11.953125 0.282352 200 0 0
-19.921875 12.351562 0.39216 200 0 0
-19.921875 12.75 0.89412 200 0 0
-19.921875 13.148437 1.741176 200 0 0
-19.921875 13.546875 0.454904 200 0 0
-19.921875 13.945312 0.925488 200 0 0
-19.921875 14.34375 0.862744 200 0 0
-19.921875 14.742187 1.239216 200 0 0
-19.921875 15.140625 0.674512 200 0 0
-19.921875 15.539062 1.223528 200 0 0
-19.921875 15.9375 1.317648 200 0 0
-19.921875 16.335937 1.239216 200 0 0
-19.921875 16.734375 1.39608 200 0 0
-19.921875 17.132812 1.082352 200 0 0
-19.921875 17.53125 0.643136 200 0 0
-19.921875 17.929687 1.129408 200 0 0
-19.921875 18.328125 0.674512 200 0 0
-19.921875 18.726562 0.831376 200 0 0
-19.921875 19.125 0.313728 200 0 0
-19.921875 19.523438 0.345096 200 0 0
-19.921875 19.921875 0.486272 200 0 0
-19.921875 20.320313 0.658824 200 0 0
-19.921875 20.71875 1.317648 200 0 0
-19.921875 21.117188 1.066664 200 0 0
-19.921875 21.515625 0.533336 200 0 0
-19.921875 21.914063 0.831376 200 0 0
-19.921875 22.3125 0.517648 200 0 0
-19.921875 22.710938 0.470592 200 0 0
-19.921875 23.109375 0.784312 200 0 0
-19.921875 23.507813 0.988232 200 0 0
-19.921875 23.90625 1.176472 200 0 0
-19.921875 24.304688 0.831376 200 0 0
-19.921875 24.703125 1.474512 200 0 0
-19.921875 25.101563 0.439216 200 0 0
-19.921875 25.5 0.972552 200 0 0
-19.921875 25.898438 0.219608 200 0 0
-19.921875 26.296875 1.647056 200 0 0
-19.921875 26.695313 0.517648 200 0 0
-19.921875 27.09375 0.674512 200 0 0
-19.921875 27.492188 0.8 200 0 0
-19.921875 27.890625 0.517648 200 0 0
-19.921875 28.289063 0.470592 200 0 0
-19.921875 28.6875 0.439216 200 0 0
-19.921875 29.085938 0.031376 200 0 0
-19.921875 29.484375 0.721568 200 0 0
-19.921875 29.882813 1.113728 200 0 0
-19.921875 30.28125 0.611768 200 0 0
-19.921875 30.679688 0.549016 200 0 0
-19.921875 31.078125 0.282352 200 0 0
-19.921875 31.476563 0.329408 200 0 0
-19.921875 31.875 0.6902 200 0 0
-19.921875 32.273438 1.035296 200 0 0
-19.921875 32.671875 0.50196 200 0 0
-19.921875 33.070313 0.266664 200 0 0
-19.921875 33.46875 0.454904 200 0 0
-19.921875 33.867188 0.50196 200 0 0
-19.921875 34.265625 0.423528 200 0 0
-19.921875 34.664063 0.674512 200 0 0
-19.921875 35.0625 0 200 0 0
-19.921875 35.460938 0.89412 200 0 0
-19.921875 35.859375 0.674512 200 0 0
-19.921875 36.257813 0.8 200 0 0
-19.921875 36.65625 1.129408 200 0 0
-19.921875 37.054688 0.50196 200 0 0
-19.921875 37.453125 0.454904 200 0 0
-19.921875 37.851563 0.454904 200 0 0
-19.921875 38.25 0.737256 200 0 0
-19.921875 38.648438 0.1098 200 0 0
-19.921875 39.046875 1.39608 200 0 0
-19.921875 39.445313 0.078432 200 0 0
-19.921875 39.84375 0.486272 200 0 0
-19.921875 40.242188 0.878432 200 0 0
-19.921875 40.640625 0.047056 200 0 0
-19.921875 41.039063 0.470592 200 0 0
-19.921875 41.4375 0.20392 200 0 0
-19.921875 41.835938 0.70588 200 0 0
-19.921875 42.234375 0.015688 200 0 0
-19.921875 42.632813 0.40784 200 0 0
-19.921875 43.03125 0.721568 200 0 0
-19.921875 43.429688 0.674512 200 0 0
-19.921875 43.828125 0.972552 200 0 0
-19.921875 44.226563 0.09412 200 0 0
-19.921875 44.625 0.40784 200 0 0
-19.921875 45.023438 0.674512 200 0 0
-19.921875 45.421875 0.9098 200 0 0
-19.921875 45.820313 0.470592 200 0 0
-19.523438 -45.820313 0.721568 200 0 0
-19.523438 -45.421875 0.643136 200 0 0
-19.523438 -45.023438 0.078432 200 0 0
-19.523438 -44.625 0.219608 200 0 0
-19.523438 -44.226563 0.047056 200 0 0
-19.523438 -43.828125 0.674512 200 0 0
-19.523438 -43.429688 0.972552 200 0 0
-19.523438 -43.03125 0.188232 200 0 0
-19.523438 -42.632813 0.40784 200 0 0
-19.523438 -42.234375 0.768624 200 0 0
-19.523438 -41.835938 0.517648 200 0 0
-19.523438 -41.4375 0 200 0 0
-19.523438 -41.039063 0.533336 200 0 0
-19.523438 -40.640625 0 200 0 0
-19.523438 -40.242188 0.721568 200 0 0
-19.523438 -39.84375 0.847056 200 0 0
-19.523438 -39.445313 0.39216 200 0 0
-19.523438 -39.046875 0.831376 200 0 0
-19.523438 -38.648438 0.125488 200 0 0
-19.523438 -38.25 0.815688 200 0 0
-19.523438 -37.851563 0.658824 200 0 0
-19.523438 -37.453125 0.015688 200 0 0
-19.523438 -37.054688 0.517648 200 0 0
-19.523438 -36.65625 0.29804 200 0 0
-19.523438 -36.257813 0.658824 200 0 0
-19.523438 -35.859375 0.235296 200 0 0
-19.523438 -35.460938 0 200 0 0
-19.523438 -35.0625 0.674512 200 0 0
-19.523438 -34.664063 0.831376 200 0 0
-19.523438 -34.265625 0.988232 200 0 0
-19.523438 -33.867188 0.9098 200 0 0
-19.523438 -33.46875 0.8 200 0 0
-19.523438 -33.070313 0.580392 200 0 0
-19.523438 -32.671875 0.031376 200 0 0
-19.523438 -32.273438 0.470592 200 0 0
-19.523438 -31.875 0.674512 200 0 0
-19.523438 -31.476563 0.062744 200 0 0
-19.523438 -31.078125 0.6902 200 0 0
-19.523438 -30.679688 1.00392 200 0 0
-19.523438 -30.28125 0.078432 200 0 0
-19.523438 -29.882813 0.862744 200 0 0
-19.523438 -29.484375 0 200 0 0
-19.523438 -29.085938 0.925488 200 0 0
-19.523438 -28.6875 0.549016 200 0 0
-19.523438 -28.289063 0.50196 200 0 0
-19.523438 -27.890625 1.066664 200 0 0
-19.523438 -27.492188 0.768624 200 0 0
-19.523438 -27.09375 0.721568 200 0 0
-19.523438 -26.695313 0.517648 200 0 0
-19.523438 -26.296875 0.40784 200 0 0
-19.523438 -25.898438 0.564704 200 0 0
-19.523438 -25.5 0.564704 200 0 0
-19.523438 -25.101563 1.239216 200 0 0
-19.523438 -24.703125 1.09804 200 0 0
-19.523438 -24.304688 0.1098 200 0 0
-19.523438 -23.90625 1.050984 200 0 0
-19.523438 -23.507813 0.470592 200 0 0
-19.523438 -23.109375 0.9098 200 0 0
-19.523438 -22.710938 0.941176 200 0 0
-19.523438 -22.3125 1.082352 200 0 0
-19.523438 -21.914063 1.850984 200 0 0
-19.523438 -21.515625 1.176472 200 0 0
-19.523438 -21.117188 0.59608 200 0 0
-19.523438 -20.71875 0.721568 200 0 0
-19.523438 -20.320313 1.788232 200 0 0
-19.523438 -19.921875 1.223528 200 0 0
-19.523438 -19.523438 0.219608 200 0 0
-19.523438 -19.125 0.470592 200 0 0
-19.523438 -18.726563 1.160784 200 0 0
-19.523438 -18.328125 1.19216 200 0 0
-19.523438 -17.929688 0.486272 200 0 0
-19.523438 -17.53125 0.1098 200 0 0
-19.523438 -17.132813 1.866664 200 0 0
-19.523438 -16.734375 0.847056 200 0 0
-19.523438 -16.335938 0.972552 200 0 0
-19.523438 -15.9375 0.611768 200 0 0
-19.523438 -15.539063 0.70588 200 0 0
-19.523438 -15.140625 0.235296 200 0 0
-19.523438 -14.742188 0.580392 200 0 0
-19.523438 -14.34375 0.8 200 0 0
-19.523438 -13.945313 1.223528 200 0 0
-19.523438 -13.546875 0.972552 200 0 0
-19.523438 -13.148438 0.235296 200 0 0
-19.523438 -12.75 2.431376 200 0 0
-19.523438 -12.351563 0.674512 200 0 0
-19.523438 -11.953125 1.19216 200 0 0
-19.523438 -11.554688 0.486272 200 0 0
-19.523438 -11.15625 0.972552 200 0 0
-19.523438 -10.757813 0.89412 200 0 0
-19.523438 -10.359375 1.6 200 0 0
-19.523438 -9.960938 1.019608 200 0 0
-19.523438 -9.5625 0.6902 200 0 0
-19.523438 -9.164063 0.925488 200 0 0
-19.523438 -8.765625 0.20392 200 0 0
-19.523438 -8.367188 1.113728 200 0 0
-19.523438 -7.96875 1.4902 200 0 0
-19.523438 -7.570313 1.066664 200 0 0
-19.523438 -7.171875 0.752944 200 0 0
-19.523438 -6.773438 0.941176 200 0 0
-19.523438 -6.375 1.537256 200 0 0
-19.523438 -5.976563 0.047056 200 0 0
-19.523438 -5.578125 0.89412 200 0 0
-19.523438 -5.179688 0.643136 200 0 0
-19.523438 -4.78125 1.30196 200 0 0
-19.523438 -4.382813 1.39608 200 0 0
-19.523438 -3.984375 2.00784 200 0 0
-19.523438 -3.585938 2.415688 200 0 0
-19.523438 -3.1875 3.152944 200 0 0
-19.523438 -2.789063 0.219608 200 0 0
-19.523438 -2.390625 1.317648 200 0 0
-19.523438 -1.992188 2.384312 200 0 0
-19.523438 -1.59375 2.462744 200 0 0
-19.523438 -1.195313 1.20784 200 0 0
-19.523438 -0.796875 2.462744 200 0 0
-19.523438 -0.398438 1.427448 200 0 0
-19.523438 0 1.882352 200 0 0
-19.523438 0.398437 1.380392 200 0 0
-19.523438 0.796875 2.431376 200 0 0
-19.523438 1.195312 1.6 200 0 0
-19.523438 1.59375 1.835296 200 0 0
-19.523438 1.992187 4.188232 200 0 0
-19.523438 2.390625 0.752944 200 0 0
-19.523438 2.789062 0.768624 200 0 0
-19.523438 3.1875 2.368624 200 0 0
-19.523438 3.585937 1.129408 200 0 0
-19.523438 3.984375 1.788232 200 0 0
-19.523438 4.382812 1.615688 200 0 0
-19.523438 4.78125 0.768624 200 0 0
-19.523438 5.179687 1.349016 200 0 0
-19.523438 5.578125 1.772552 200 0 0
-19.523438 5.976562 2.258824 200 0 0
-19.523438 6.375 0.580392 200 0 0
-19.523438 6.773437 1.39608 200 0 0
-19.523438 7.171875 5.411768 200 0 0
-19.523438 7.570312 1.349016 200 0 0
-19.523438 7.96875 0.40784 200 0 0
-19.523438 8.367187 2.211768 200 0 0
-19.523438 8.765625 2.556864 200 0 0
-19.523438 9.164062 0.360784 200 0 0
-19.523438 9.5625 0.862744 200 0 0
-19.523438 9.960937 1.082352 200 0 0
-19.523438 10.359375 0.956864 200 0 0
-19.523438 10.757812 1.380392 200 0 0
-19.523438 11.15625 1.239216 200 0 0
-19.523438 11.554687 0.141176 200 0 0
-19.523438 11.953125 0.941176 200 0 0
-19.523438 12.351562 1.913728 200 0 0
-19.523438 12.75 0.6902 200 0 0
-19.523438 13.148437 1.082352 200 0 0
-19.523438 13.546875 0.9098 200 0 0
-19.523438 13.945312 0.815688 200 0 0
-19.523438 14.34375 1.254904 200 0 0
-19.523438 14.742187 0.454904 200 0 0
-19.523438 15.140625 0.454904 200 0 0
-19.523438 15.539062 1.176472 200 0 0
-19.523438 15.9375 0.768624 200 0 0
-19.523438 16.335937 1.30196 200 0 0
-19.523438 16.734375 0.70588 200 0 0
-19.523438 17.132812 0.533336 200 0 0
-19.523438 17.53125 0.878432 200 0 0
-19.523438 17.929687 1.223528 200 0 0
-19.523438 18.328125 1.019608 200 0 0
-19.523438 18.726562 1.223528 200 0 0
-19.523438 19.125 0.345096 200 0 0
-19.523438 19.523438 0.454904 200 0 0
-19.523438 19.921875 0.70588 200 0 0
-19.523438 20.320313 1.725488 200 0 0
-19.523438 20.71875 1.035296 200 0 0
-19.523438 21.117188 0.564704 200 0 0
-19.523438 21.515625 1.443136 200 0 0
-19.523438 21.914063 1.286272 200 0 0
-19.523438 22.3125 0.611768 200 0 0
-19.523438 22.710938 0.40784 200 0 0
-19.523438 23.109375 0.643136 200 0 0
-19.523438 23.507813 0.40784 200 0 0
-19.523438 23.90625 0.40784 200 0 0
-19.523438 24.304688 0.439216 200 0 0
-19.523438 24.703125 0.89412 200 0 0
-19.523438 25.101563 0.737256 200 0 0
-19.523438 25.5 0.40784 200 0 0
-19.523438 25.898438 1.254904 200 0 0
-19.523438 26.296875 1.20784 200 0 0
-19.523438 26.695313 0.266664 200 0 0
-19.523438 27.09375 1.035296 200 0 0
-19.523438 27.492188 1.741176 200 0 0
-19.523438 27.890625 0.235296 200 0 0
-19.523438 28.289063 0.517648 200 0 0
-19.523438 28.6875 0.674512 200 0 0
-19.523438 29.085938 0.50196 200 0 0
-19.523438 29.484375 0.9098 200 0 0
-19.523438 29.882813 0 200 0 0
-19.523438 30.28125 0.658824 200 0 0
-19.523438 30.679688 0.6902 200 0 0
-19.523438 31.078125 0.470592 200 0 0
-19.523438 31.476563 0.470592 200 0 0
-19.523438 31.875 0.533336 200 0 0
-19.523438 32.273438 0.470592 200 0 0
-19.523438 32.671875 1.176472 200 0 0
-19.523438 33.070313 0.70588 200 0 0
-19.523438 33.46875 0.643136 200 0 0
-19.523438 33.867188 0.29804 200 0 0
-19.523438 34.265625 0.831376 200 0 0
-19.523438 34.664063 0.29804 200 0 0
-19.523438 35.0625 0.674512 200 0 0
-19.523438 35.460938 0.439216 200 0 0
-19.523438 35.859375 1.00392 200 0 0
-19.523438 36.257813 0.89412 200 0 0
-19.523438 36.65625 0.517648 200 0 0
-19.523438 37.054688 0.533336 200 0 0
-19.523438 37.453125 0.831376 200 0 0
-19.523438 37.851563 0.266664 200 0 0
-19.523438 38.25 1.176472 200 0 0
-19.523438 38.648438 0.125488 200 0 0
-19.523438 39.046875 0.470592 200 0 0
-19.523438 39.445313 0.6902 200 0 0
-19.523438 39.84375 0.188232 200 0 0
-19.523438 40.242188 0.517648 200 0 0
-19.523438 40.640625 0.031376 200 0 0
-19.523438 41.039063 0.454904 200 0 0
-19.523438 41.4375 0.062744 200 0 0
-19.523438 41.835938 0.674512 200 0 0
-19.523438 42.234375 1.035296 200 0 0
-19.523438 42.632813 0.533336 200 0 0
-19.523438 43.03125 0.721568 200 0 0
-19.523438 43.429688 0.1098 200 0 0
-19.523438 43.828125 0.517648 200 0 0
-19.523438 44.226563 0.470592 200 0 0
-19.523438 44.625 0.470592 200 0 0
-19.523438 45.023438 0.454904 200 0 0
-19.523438 45.421875 0.486272 200 0 0
-19.523438 45.820313 0.70588 200 0 0
-19.125 -45.820313 0.517648 200 0 0
-19.125 -45.421875 1.113728 200 0 0
-19.125 -45.023438 0.188232 200 0 0
-19.125 -44.625 0.674512 200 0 0
-19.125 -44.226563 0.047056 200 0 0
-19.125 -43.828125 0.078432 200 0 0
-19.125 -43.429688 0.156864 200 0 0
-19.125 -43.03125 0.580392 200 0 0
-19.125 -42.632813 0.188232 200 0 0
-19.125 -42.234375 0.658824 200 0 0
-19.125 -41.835938 0.188232 200 0 0
-19.125 -41.4375 0.031376 200 0 0
-19.125 -41.039063 0.674512 200 0 0
-19.125 -40.640625 0 200 0 0
-19.125 -40.242188 0.674512 200 0 0
-19.125 -39.84375 0.125488 200 0 0
-19.125 -39.445313 0.737256 200 0 0
-19.125 -39.046875 0.8 200 0 0
-19.125 -38.648438 0.329408 200 0 0
-19.125 -38.25 0.674512 200 0 0
-19.125 -37.851563 0.6902 200 0 0
-19.125 -37.453125 0.784312 200 0 0
-19.125 -37.054688 0.70588 200 0 0
-19.125 -36.65625 0.517648 200 0 0
-19.125 -36.257813 0.313728 200 0 0
-19.125 -35.859375 1.00392 200 0 0
-19.125 -35.460938 0.862744 200 0 0
-19.125 -35.0625 0 200 0 0
-19.125 -34.664063 0.658824 200 0 0
-19.125 -34.265625 0.6902 200 0 0
-19.125 -33.867188 0.847056 200 0 0
-19.125 -33.46875 0.470592 200 0 0
-19.125 -33.070313 0.862744 200 0 0
-19.125 -32.671875 1.00392 200 0 0
-19.125 -32.273438 0.454904 200 0 0
-19.125 -31.875 1.223528 200 0 0
-19.125 -31.476563 0.50196 200 0 0
-19.125 -31.078125 0.439216 200 0 0
-19.125 -30.679688 0.956864 200 0 0
-19.125 -30.28125 0.078432 200 0 0
-19.125 -29.882813 0.40784 200 0 0
-19.125 -29.484375 0.847056 200 0 0
-19.125 -29.085938 0.674512 200 0 0
-19.125 -28.6875 0.423528 200 0 0
-19.125 -28.289063 0.047056 200 0 0
-19.125 -27.890625 0.423528 200 0 0
-19.125 -27.492188 0.266664 200 0 0
-19.125 -27.09375 0.862744 200 0 0
-19.125 -26.695313 0.89412 200 0 0
-19.125 -26.296875 0.9098 200 0 0
-19.125 -25.898438 0.752944 200 0 0
-19.125 -25.5 0.925488 200 0 0
-19.125 -25.101563 1.050984 200 0 0
-19.125 -24.703125 0.89412 200 0 0
-19.125 -24.304688 0.988232 200 0 0
-19.125 -23.90625 0.941176 200 0 0
-19.125 -23.507813 1.19216 200 0 0
-19.125 -23.109375 0.360784 200 0 0
-19.125 -22.710938 0.549016 200 0 0
-19.125 -22.3125 0.564704 200 0 0
-19.125 -21.914063 1.145096 200 0 0
-19.125 -21.515625 2.117648 200 0 0
-19.125 -21.117188 1.20784 200 0 0
-19.125 -20.71875 1.019608 200 0 0
-19.125 -20.320313 0.454904 200 0 0
-19.125 -19.921875 1.882352 200 0 0
-19.125 -19.523438 1.239216 200 0 0
-19.125 -19.125 0.6902 200 0 0
-19.125 -18.726563 0.470592 200 0 0
-19.125 -18.328125 1.19216 200 0 0
-19.125 -17.929688 1.317648 200 0 0
-19.125 -17.53125 0.564704 200 0 0
-19.125 -17.132813 0.6902 200 0 0
-19.125 -16.734375 1.317648 200 0 0
-19.125 -16.335938 0.70588 200 0 0
-19.125 -15.9375 1.270592 200 0 0
-19.125 -15.539063 1.537256 200 0 0
-19.125 -15.140625 0.188232 200 0 0
-19.125 -14.742188 0.925488 200 0 0
-19.125 -14.34375 0.627448 200 0 0
-19.125 -13.945313 0.517648 200 0 0
-19.125 -13.546875 1.317648 200 0 0
-19.125 -13.148438 1.223528 200 0 0
-19.125 -12.75 2.760784 200 0 0
-19.125 -12.351563 0.878432 200 0 0
-19.125 -11.953125 1.082352 200 0 0
-19.125 -11.554688 0.878432 200 0 0
-19.125 -11.15625 0.59608 200 0 0
-19.125 -10.757813 1.866664 200 0 0
-19.125 -10.359375 1.6 200 0 0
-19.125 -9.960938 1.066664 200 0 0
-19.125 -9.5625 0.674512 200 0 0
-19.125 -9.164063 1.129408 200 0 0
-19.125 -8.765625 1.254904 200 0 0
-19.125 -8.367188 1.945096 200 0 0
-19.125 -7.96875 1.270592 200 0 0
-19.125 -7.570313 1.50588 200 0 0
-19.125 -7.171875 2.384312 200 0 0
-19.125 -6.773438 0.329408 200 0 0
-19.125 -6.375 1.4902 200 0 0
-19.125 -5.976563 1.69412 200 0 0
-19.125 -5.578125 0.752944 200 0 0
-19.125 -5.179688 0.39216 200 0 0
-19.125 -4.78125 1.882352 200 0 0
-19.125 -4.382813 1.113728 200 0 0
-19.125 -3.984375 1.521568 200 0 0
-19.125 -3.585938 1.662744 200 0 0
-19.125 -3.1875 1.176472 200 0 0
-19.125 -2.789063 1.976472 200 0 0
-19.125 -2.390625 1.756864 200 0 0
-19.125 -1.992188 1.349016 200 0 0
-19.125 -1.59375 3.623528 200 0 0
-19.125 -1.195313 1.882352 200 0 0
-19.125 -0.796875 2.541176 200 0 0
-19.125 -0.398438 1.960784 200 0 0
-19.125 0 1.866664 200 0 0
-19.125 0.398437 1.380392 200 0 0
-19.125 0.796875 2.729408 200 0 0
-19.125 1.195312 1.521568 200 0 0
-19.125 1.59375 2.839216 200 0 0
-19.125 1.992187 2.823528 200 0 0
-19.125 2.390625 1.552944 200 0 0
-19.125 2.789062 1.066664 200 0 0
-19.125 3.1875 1.866664 200 0 0
-19.125 3.585937 1.349016 200 0 0
-19.125 3.984375 1.176472 200 0 0
-19.125 4.382812 1.69412 200 0 0
-19.125 4.78125 2.352944 200 0 0
-19.125 5.179687 1.082352 200 0 0
-19.125 5.578125 0.250984 200 0 0
-19.125 5.976562 1.443136 200 0 0
-19.125 6.375 1.317648 200 0 0
-19.125 6.773437 1.788232 200 0 0
-19.125 7.171875 0.439216 200 0 0
-19.125 7.570312 2.00784 200 0 0
-19.125 7.96875 1.380392 200 0 0
-19.125 8.367187 1.69412 200 0 0
-19.125 8.765625 0.674512 200 0 0
-19.125 9.164062 2.19608 200 0 0
-19.125 9.5625 0.878432 200 0 0
-19.125 9.960937 1.20784 200 0 0
-19.125 10.359375 0.6902 200 0 0
-19.125 10.757812 0.956864 200 0 0
-19.125 11.15625 2.070592 200 0 0
-19.125 11.554687 1.254904 200 0 0
-19.125 11.953125 0.517648 200 0 0
-19.125 12.351562 0.988232 200 0 0
-19.125 12.75 0.972552 200 0 0
-19.125 13.148437 0.972552 200 0 0
-19.125 13.546875 1.160784 200 0 0
-19.125 13.945312 1.850984 200 0 0
-19.125 14.34375 1.458824 200 0 0
-19.125 14.742187 0.972552 200 0 0
-19.125 15.140625 0.266664 200 0 0
-19.125 15.539062 0.156864 200 0 0
-19.125 15.9375 0.831376 200 0 0
-19.125 16.335937 0.580392 200 0 0
-19.125 16.734375 0.89412 200 0 0
-19.125 17.132812 0.658824 200 0 0
-19.125 17.53125 1.537256 200 0 0
-19.125 17.929687 0.40784 200 0 0
-19.125 18.328125 1.286272 200 0 0
-19.125 18.726562 0.784312 200 0 0
-19.125 19.125 0.549016 200 0 0
-19.125 19.523438 0.721568 200 0 0
-19.125 19.921875 1.647056 200 0 0
-19.125 20.320313 0.956864 200 0 0
-19.125 20.71875 1.254904 200 0 0
-19.125 21.117188 1.20784 200 0 0
-19.125 21.515625 0.752944 200 0 0
-19.125 21.914063 1.050984 200 0 0
-19.125 22.3125 0.878432 200 0 0
-19.125 22.710938 1.223528 200 0 0
-19.125 23.109375 0.627448 200 0 0
-19.125 23.507813 1.474512 200 0 0
-19.125 23.90625 0.29804 200 0 0
-19.125 24.304688 0.549016 200 0 0
-19.125 24.703125 0.9098 200 0 0
-19.125 25.101563 0.70588 200 0 0
-19.125 25.5 1.050984 200 0 0
-19.125 25.898438 0.1098 200 0 0
-19.125 26.296875 0.470592 200 0 0
-19.125 26.695313 0.580392 200 0 0
-19.125 27.09375 0.847056 200 0 0
-19.125 27.492188 0.50196 200 0 0
-19.125 27.890625 1.239216 200 0 0
-19.125 28.289063 1.145096 200 0 0
-19.125 28.6875 0.956864 200 0 0
-19.125 29.085938 0.29804 200 0 0
-19.125 29.484375 0.360784 200 0 0
-19.125 29.882813 0.1098 200 0 0
-19.125 30.28125 1.082352 200 0 0
-19.125 30.679688 0.454904 200 0 0
-19.125 31.078125 1.286272 200 0 0
-19.125 31.476563 0.643136 200 0 0
-19.125 31.875 0.20392 200 0 0
-19.125 32.273438 0.580392 200 0 0
-19.125 32.671875 0.486272 200 0 0
-19.125 33.070313 0.047056 200 0 0
-19.125 33.46875 0.941176 200 0 0
-19.125 33.867188 0.470592 200 0 0
-19.125 34.265625 0.062744 200 0 0
-19.125 34.664063 0.549016 200 0 0
-19.125 35.0625 0.360784 200 0 0
-19.125 35.460938 0.862744 200 0 0
-19.125 35.859375 0.972552 200 0 0
-19.125 36.257813 0.250984 200 0 0
-19.125 36.65625 1.129408 200 0 0
-19.125 37.054688 0.439216 200 0 0
-19.125 37.453125 0.674512 200 0 0
-19.125 37.851563 0.125488 200 0 0
-19.125 38.25 0.470592 200 0 0
-19.125 38.648438 0.674512 200 0 0
-19.125 39.046875 0.156864 200 0 0
-19.125 39.445313 0.125488 200 0 0
-19.125 39.84375 0 200 0 0
-19.125 40.242188 1.223528 200 0 0
-19.125 40.640625 0.015688 200 0 0
-19.125 41.039063 0.658824 200 0 0
-19.125 41.4375 0.078432 200 0 0
-19.125 41.835938 0.20392 200 0 0
-19.125 42.234375 1.145096 200 0 0
-19.125 42.632813 0.078432 200 0 0
-19.125 43.03125 0 200 0 0
-19.125 43.429688 0.39216 200 0 0
-19.125 43.828125 0.533336 200 0 0
-19.125 44.226563 0.078432 200 0 0
-19.125 44.625 0.470592 200 0 0
-19.125 45.023438 0.580392 200 0 0
-19.125 45.421875 0.39216 200 0 0
-19.125 45.820313 0.470592 200 0 0
-18.726563 -46.21875 0.517648 200 0 0
-18.726563 -45.820313 0.062744 200 0 0
-18.726563 -45.421875 0.70588 200 0 0
-18.726563 -45.023438 0.752944 200 0 0
-18.726563 -44.625 0.40784 200 0 0
-18.726563 -44.226563 0.533336 200 0 0
-18.726563 -43.828125 0.737256 200 0 0
-18.726563 -43.429688 0.454904 200 0 0
-18.726563 -43.03125 0.517648 200 0 0
-18.726563 -42.632813 0.454904 200 0 0
-18.726563 -42.234375 0.50196 200 0 0
-18.726563 -41.835938 0 200 0 0
-18.726563 -41.4375 0.125488 200 0 0
-18.726563 -41.039063 0.047056 200 0 0
-18.726563 -40.640625 0.078432 200 0 0
-18.726563 -40.242188 0.141176 200 0 0
-18.726563 -39.84375 0.20392 200 0 0
-18.726563 -39.445313 0.674512 200 0 0
-18.726563 -39.046875 0.09412 200 0 0
-18.726563 -38.648438 0.972552 200 0 0
-18.726563 -38.25 0.752944 200 0 0
-18.726563 -37.851563 0.533336 200 0 0
-18.726563 -37.453125 0.674512 200 0 0
-18.726563 -37.054688 0.6902 200 0 0
-18.726563 -36.65625 1.019608 200 0 0
-18.726563 -36.257813 1.160784 200 0 0
-18.726563 -35.859375 0.470592 200 0 0
-18.726563 -35.460938 0.09412 200 0 0
-18.726563 -35.0625 0.988232 200 0 0
-18.726563 -34.664063 0.29804 200 0 0
-18.726563 -34.265625 0.658824 200 0 0
-18.726563 -33.867188 1.254904 200 0 0
-18.726563 -33.46875 0.517648 200 0 0
-18.726563 -33.070313 0.674512 200 0 0
-18.726563 -32.671875 0.486272 200 0 0
-18.726563 -32.273438 1.427448 200 0 0
-18.726563 -31.875 1.223528 200 0 0
-18.726563 -31.476563 0.972552 200 0 0
-18.726563 -31.078125 1.30196 200 0 0
-18.726563 -30.679688 0.031376 200 0 0
-18.726563 -30.28125 0.470592 200 0 0
-18.726563 -29.882813 0.1098 200 0 0
-18.726563 -29.484375 1.223528 200 0 0
-18.726563 -29.085938 0.09412 200 0 0
-18.726563 -28.6875 0.815688 200 0 0
-18.726563 -28.289063 0.831376 200 0 0
-18.726563 -27.890625 1.317648 200 0 0
-18.726563 -27.492188 0.376472 200 0 0
-18.726563 -27.09375 0.29804 200 0 0
-18.726563 -26.695313 1.223528 200 0 0
-18.726563 -26.296875 0.1098 200 0 0
-18.726563 -25.898438 0.8 200 0 0
-18.726563 -25.5 0.517648 200 0 0
-18.726563 -25.101563 1.176472 200 0 0
-18.726563 -24.703125 0.470592 200 0 0
-18.726563 -24.304688 0.125488 200 0 0
-18.726563 -23.90625 0.360784 200 0 0
-18.726563 -23.507813 0.831376 200 0 0
-18.726563 -23.109375 0.658824 200 0 0
-18.726563 -22.710938 1.364704 200 0 0
-18.726563 -22.3125 0.470592 200 0 0
-18.726563 -21.914063 0.925488 200 0 0
-18.726563 -21.515625 1.113728 200 0 0
-18.726563 -21.117188 0.784312 200 0 0
-18.726563 -20.71875 0.674512 200 0 0
-18.726563 -20.320313 0.454904 200 0 0
-18.726563 -19.921875 0.313728 200 0 0
-18.726563 -19.523438 1.976472 200 0 0
-18.726563 -19.125 0.329408 200 0 0
-18.726563 -18.726563 0.768624 200 0 0
-18.726563 -18.328125 0.486272 200 0 0
-18.726563 -17.929688 1.239216 200 0 0
-18.726563 -17.53125 1.364704 200 0 0
-18.726563 -17.132813 0.721568 200 0 0
-18.726563 -16.734375 1.80392 200 0 0
-18.726563 -16.335938 0.925488 200 0 0
-18.726563 -15.9375 0.09412 200 0 0
-18.726563 -15.539063 0.658824 200 0 0
-18.726563 -15.140625 0.847056 200 0 0
-18.726563 -14.742188 1.568624 200 0 0
-18.726563 -14.34375 1.364704 200 0 0
-18.726563 -13.945313 1.035296 200 0 0
-18.726563 -13.546875 1.20784 200 0 0
-18.726563 -13.148438 0.125488 200 0 0
-18.726563 -12.75 0.831376 200 0 0
-18.726563 -12.351563 1.129408 200 0 0
-18.726563 -11.953125 1.09804 200 0 0
-18.726563 -11.554688 1.317648 200 0 0
-18.726563 -11.15625 0.674512 200 0 0
-18.726563 -10.757813 1.647056 200 0 0
-18.726563 -10.359375 1.00392 200 0 0
-18.726563 -9.960938 1.474512 200 0 0
-18.726563 -9.5625 1.050984 200 0 0
-18.726563 -9.164063 0.6902 200 0 0
-18.726563 -8.765625 2.149016 200 0 0
-18.726563 -8.367188 1.458824 200 0 0
-18.726563 -7.96875 0.89412 200 0 0
-18.726563 -7.570313 1.176472 200 0 0
-18.726563 -7.171875 1.239216 200 0 0
-18.726563 -6.773438 1.6 200 0 0
-18.726563 -6.375 0.925488 200 0 0
-18.726563 -5.976563 1.537256 200 0 0
-18.726563 -5.578125 1.19216 200 0 0
-18.726563 -5.179688 1.223528 200 0 0
-18.726563 -4.78125 2.49412 200 0 0
-18.726563 -4.382813 0.941176 200 0 0
-18.726563 -3.984375 1.80392 200 0 0
-18.726563 -3.585938 5.427448 200 0 0
-18.726563 -3.1875 2.588232 200 0 0
-18.726563 -2.789063 3.545096 200 0 0
-18.726563 -2.390625 1.082352 200 0 0
-18.726563 -1.992188 3.529408 200 0 0
-18.726563 -1.59375 0.972552 200 0 0
-18.726563 -1.195313 3.921568 200 0 0
-18.726563 -0.796875 3.027448 200 0 0
-18.726563 -0.398438 1.615688 200 0 0
-18.726563 0 1.929408 200 0 0
-18.726563 0.398437 1.474512 200 0 0
-18.726563 0.796875 2.980392 200 0 0
-18.726563 1.195312 1.756864 200 0 0
-18.726563 1.59375 5.4902 200 0 0
-18.726563 1.992187 3.152944 200 0 0
-18.726563 2.390625 3.388232 200 0 0
-18.726563 2.789062 2.19608 200 0 0
-18.726563 3.1875 1.568624 200 0 0
-18.726563 3.585937 1.39608 200 0 0
-18.726563 3.984375 2.149016 200 0 0
-18.726563 4.382812 0.89412 200 0 0
-18.726563 4.78125 1.521568 200 0 0
-18.726563 5.179687 1.066664 200 0 0
-18.726563 5.578125 1.20784 200 0 0
-18.726563 5.976562 0.360784 200 0 0
-18.726563 6.375 0.611768 200 0 0
-18.726563 6.773437 1.411768 200 0 0
-18.726563 7.171875 1.678432 200 0 0
-18.726563 7.570312 2.447056 200 0 0
-18.726563 7.96875 1.333336 200 0 0
-18.726563 8.367187 2.054904 200 0 0
-18.726563 8.765625 0.878432 200 0 0
-18.726563 9.164062 1.349016 200 0 0
-18.726563 9.5625 0.956864 200 0 0
-18.726563 9.960937 0.59608 200 0 0
-18.726563 10.359375 1.239216 200 0 0
-18.726563 10.757812 0.8 200 0 0
-18.726563 11.15625 1.50588 200 0 0
-18.726563 11.554687 1.019608 200 0 0
-18.726563 11.953125 0.815688 200 0 0
-18.726563 12.351562 0.29804 200 0 0
-18.726563 12.75 1.239216 200 0 0
-18.726563 13.148437 0.549016 200 0 0
-18.726563 13.546875 1.254904 200 0 0
-18.726563 13.945312 0.941176 200 0 0
-18.726563 14.34375 0.50196 200 0 0
-18.726563 14.742187 1.945096 200 0 0
-18.726563 15.140625 0.721568 200 0 0
-18.726563 15.539062 1.458824 200 0 0
-18.726563 15.9375 1.082352 200 0 0
-18.726563 16.335937 0.643136 200 0 0
-18.726563 16.734375 1.00392 200 0 0
-18.726563 17.132812 1.4902 200 0 0
-18.726563 17.53125 0.235296 200 0 0
-18.726563 17.929687 1.066664 200 0 0
-18.726563 18.328125 0.862744 200 0 0
-18.726563 18.726562 0.721568 200 0 0
-18.726563 19.125 1.50588 200 0 0
-18.726563 19.523438 1.678432 200 0 0
-18.726563 19.921875 0.972552 200 0 0
-18.726563 20.320313 0.956864 200 0 0
-18.726563 20.71875 1.443136 200 0 0
-18.726563 21.117188 0.09412 200 0 0
-18.726563 21.515625 1.427448 200 0 0
-18.726563 21.914063 0.972552 200 0 0
-18.726563 22.3125 1.286272 200 0 0
-18.726563 22.710938 0.09412 200 0 0
-18.726563 23.109375 1.6 200 0 0
-18.726563 23.507813 0.925488 200 0 0
-18.726563 23.90625 0.972552 200 0 0
-18.726563 24.304688 1.725488 200 0 0
-18.726563 24.703125 1.380392 200 0 0
-18.726563 25.101563 0.517648 200 0 0
-18.726563 25.5 0.360784 200 0 0
-18.726563 25.898438 0.360784 200 0 0
-18.726563 26.296875 0.172552 200 0 0
-18.726563 26.695313 0.580392 200 0 0
-18.726563 27.09375 0.627448 200 0 0
-18.726563 27.492188 0.925488 200 0 0
-18.726563 27.890625 0.972552 200 0 0
-18.726563 28.289063 1.176472 200 0 0
-18.726563 28.6875 1.537256 200 0 0
-18.726563 29.085938 0.674512 200 0 0
-18.726563 29.484375 0.658824 200 0 0
-18.726563 29.882813 0.1098 200 0 0
-18.726563 30.28125 0.1098 200 0 0
-18.726563 30.679688 0.1098 200 0 0
-18.726563 31.078125 0.674512 200 0 0
-18.726563 31.476563 0.188232 200 0 0
-18.726563 31.875 0.643136 200 0 0
-18.726563 32.273438 0.59608 200 0 0
-18.726563 32.671875 0.470592 200 0 0
-18.726563 33.070313 0.423528 200 0 0
-18.726563 33.46875 0.627448 200 0 0
-18.726563 33.867188 0.156864 200 0 0
-18.726563 34.265625 0.047056 200 0 0
-18.726563 34.664063 0.9098 200 0 0
-18.726563 35.0625 0.862744 200 0 0
-18.726563 35.460938 0.423528 200 0 0
-18.726563 35.859375 1.333336 200 0 0
-18.726563 36.257813 0.643136 200 0 0
-18.726563 36.65625 0.517648 200 0 0
-18.726563 37.054688 0.015688 200 0 0
-18.726563 37.453125 0.470592 200 0 0
-18.726563 37.851563 1.09804 200 0 0
-18.726563 38.25 0.972552 200 0 0
-18.726563 38.648438 0.1098 200 0 0
-18.726563 39.046875 0.015688 200 0 0
-18.726563 39.445313 1.19216 200 0 0
-18.726563 39.84375 0.39216 200 0 0
-18.726563 40.242188 0.6902 200 0 0
-18.726563 40.640625 0.250984 200 0 0
-18.726563 41.039063 0.235296 200 0 0
-18.726563 41.4375 0.674512 200 0 0
-18.726563 41.835938 0.658824 200 0 0
-18.726563 42.234375 0.031376 200 0 0
-18.726563 42.632813 0.125488 200 0 0
-18.726563 43.03125 0.50196 200 0 0
-18.726563 43.429688 0.062744 200 0 0
-18.726563 43.828125 0.50196 200 0 0
-18.726563 44.226563 0.439216 200 0 0
-18.726563 44.625 0.470592 200 0 0
-18.726563 45.023438 0.078432 200 0 0
-18.726563 45.421875 0.376472 200 0 0
-18.726563 45.820313 0.047056 200 0 0
-18.726563 46.21875 0.517648 200 0 0
-18.328125 -46.21875 0 200 0 0
-18.328125 -45.820313 0.486272 200 0 0
-18.328125 -45.421875 0.125488 200 0 0
-18.328125 -45.023438 0.831376 200 0 0
-18.328125 -44.625 0.031376 200 0 0
-18.328125 -44.226563 1.050984 200 0 0
-18.328125 -43.828125 0.564704 200 0 0
-18.328125 -43.429688 0.6902 200 0 0
-18.328125 -43.03125 0.062744 200 0 0
-18.328125 -42.632813 1.113728 200 0 0
-18.328125 -42.234375 0.517648 200 0 0
-18.328125 -41.835938 0.627448 200 0 0
-18.328125 -41.4375 0.062744 200 0 0
-18.328125 -41.039063 0.015688 200 0 0
-18.328125 -40.640625 0.282352 200 0 0
-18.328125 -40.242188 0.29804 200 0 0
-18.328125 -39.84375 0.20392 200 0 0
-18.328125 -39.445313 0.015688 200 0 0
-18.328125 -39.046875 0.39216 200 0 0
-18.328125 -38.648438 0.59608 200 0 0
-18.328125 -38.25 0.784312 200 0 0
-18.328125 -37.851563 1.317648 200 0 0
-18.328125 -37.453125 0.9098 200 0 0
-18.328125 -37.054688 0.50196 200 0 0
-18.328125 -36.65625 0 200 0 0
-18.328125 -36.257813 0.1098 200 0 0
-18.328125 -35.859375 0.768624 200 0 0
-18.328125 -35.460938 1.223528 200 0 0
-18.328125 -35.0625 0.674512 200 0 0
-18.328125 -34.664063 0.015688 200 0 0
-18.328125 -34.265625 0.470592 200 0 0
-18.328125 -33.867188 0.1098 200 0 0
-18.328125 -33.46875 0.6902 200 0 0
-18.328125 -33.070313 0.549016 200 0 0
-18.328125 -32.671875 0.1098 200 0 0
-18.328125 -32.273438 0.062744 200 0 0
-18.328125 -31.875 0.6902 200 0 0
-18.328125 -31.476563 0.219608 200 0 0
-18.328125 -31.078125 1.129408 200 0 0
-18.328125 -30.679688 0.486272 200 0 0
-18.328125 -30.28125 0.062744 200 0 0
-18.328125 -29.882813 0.658824 200 0 0
-18.328125 -29.484375 0.376472 200 0 0
-18.328125 -29.085938 0.643136 200 0 0
-18.328125 -28.6875 0.50196 200 0 0
-18.328125 -28.289063 0.643136 200 0 0
-18.328125 -27.890625 0.643136 200 0 0
-18.328125 -27.492188 0.235296 200 0 0
-18.328125 -27.09375 0.470592 200 0 0
-18.328125 -26.695313 0.486272 200 0 0
-18.328125 -26.296875 0.470592 200 0 0
-18.328125 -25.898438 0.376472 200 0 0
-18.328125 -25.5 0.29804 200 0 0
-18.328125 -25.101563 0.752944 200 0 0
-18.328125 -24.703125 0.9098 200 0 0
-18.328125 -24.304688 0.29804 200 0 0
-18.328125 -23.90625 0.972552 200 0 0
-18.328125 -23.507813 0.564704 200 0 0
-18.328125 -23.109375 1.317648 200 0 0
-18.328125 -22.710938 0.517648 200 0 0
-18.328125 -22.3125 0.439216 200 0 0
-18.328125 -21.914063 1.00392 200 0 0
-18.328125 -21.515625 0.643136 200 0 0
-18.328125 -21.117188 0.376472 200 0 0
-18.328125 -20.71875 0.423528 200 0 0
-18.328125 -20.320313 0.878432 200 0 0
-18.328125 -19.921875 0.172552 200 0 0
-18.328125 -19.523438 0.40784 200 0 0
-18.328125 -19.125 1.850984 200 0 0
-18.328125 -18.726563 0.235296 200 0 0
-18.328125 -18.328125 0.737256 200 0 0
-18.328125 -17.929688 0.486272 200 0 0
-18.328125 -17.53125 1.239216 200 0 0
-18.328125 -17.132813 1.929408 200 0 0
-18.328125 -16.734375 0.815688 200 0 0
-18.328125 -16.335938 0.831376 200 0 0
-18.328125 -15.9375 0.533336 200 0 0
-18.328125 -15.539063 0.50196 200 0 0
-18.328125 -15.140625 1.631376 200 0 0
-18.328125 -14.742188 1.866664 200 0 0
-18.328125 -14.34375 1.39608 200 0 0
-18.328125 -13.945313 1.129408 200 0 0
-18.328125 -13.546875 1.223528 200 0 0
-18.328125 -13.148438 1.662744 200 0 0
-18.328125 -12.75 0.988232 200 0 0
-18.328125 -12.351563 1.945096 200 0 0
-18.328125 -11.953125 2.086272 200 0 0
-18.328125 -11.554688 2.180392 200 0 0
-18.328125 -11.15625 0.8 200 0 0
-18.328125 -10.757813 0.752944 200 0 0
-18.328125 -10.359375 1.270592 200 0 0
-18.328125 -9.960938 0.988232 200 0 0
-18.328125 -9.5625 2.760784 200 0 0
-18.328125 -9.164063 0.549016 200 0 0
-18.328125 -8.765625 1.882352 200 0 0
-18.328125 -8.367188 2.117648 200 0 0
-18.328125 -7.96875 2.886272 200 0 0
-18.328125 -7.570313 1.552944 200 0 0
-18.328125 -7.171875 2.039216 200 0 0
