ply
format ascii 1.0
comment File exported by Rhinoceros Version 8
element vertex 1159
property float x
property float y
property float z
property uchar red
property uchar green
property uchar blue
end_header
130.66591875071902 38.648438 0 0 127 0
130.66591875071902 39.046875 0 0 127 0
130.66591875071902 39.445313 0 0 127 0
130.66591875071902 39.84375 0 0 127 0
130.66591875071902 40.242188 0 0 127 0
130.66591875071902 40.640625 0 0 127 0
130.66591875071902 41.039063 0 0 127 0
130.66591875071902 41.4375 0 0 127 0
130.66591875071902 41.835938 0 0 127 0
130.66591875071902 42.234375 0 0 127 0
130.66591875071902 42.632813 0 0 127 0
130.66591875071902 43.03125 0 0 127 0
130.66591875071902 43.429688 0 0 127 0
130.66591875071902 43.828125 0 0 127 0
130.66591875071902 44.226563 0 0 127 0
130.66591875071902 44.625 0 0 127 0
130.66591875071902 45.023438 0 0 127 0
130.66591875071902 45.421875 0 0 127 0
130.66591875071902 45.820313 0 0 127 0
130.66591875071902 46.21875 0 0 127 0
130.66591875071902 46.617188 0 0 127 0
130.66591875071902 47.015625 0 0 127 0
130.66591875071902 47.414063 0 0 127 0
130.66591875071902 47.8125 0 0 127 0
130.66591875071902 48.210938 0 0 127 0
130.66591875071902 48.609375 0 0 127 0
130.66591875071902 49.007813 0 0 127 0
130.66591875071902 49.40625 0 0 127 0
131.06435575071902 -49.40625 0 0 127 0
131.06435575071902 -49.007813 0 0 127 0
131.06435575071902 -48.609375 0 0 127 0
131.06435575071902 -48.210938 0 0 127 0
131.06435575071902 -47.8125 0 0 127 0
131.06435575071902 -47.414063 0 0 127 0
131.06435575071902 -47.015625 0 0 127 0
131.06435575071902 -46.617188 0 0 127 0
131.06435575071902 -46.21875 0 0 127 0
131.06435575071902 -45.820313 0 0 127 0
131.06435575071902 -45.421875 0 0 127 0
131.06435575071902 -45.023438 0 0 127 0
131.06435575071902 -44.625 0 0 127 0
131.06435575071902 -44.226563 0 0 127 0
131.06435575071902 -43.828125 0 0 127 0
131.06435575071902 -43.429688 0 0 127 0
131.06435575071902 -43.03125 0 0 127 0
131.06435575071902 -42.632813 0 0 127 0
131.06435575071902 -42.234375 0 0 127 0
131.06435575071902 -41.835938 0 0 127 0
131.06435575071902 -41.4375 0 0 127 0
131.06435575071902 -41.039063 0 0 127 0
131.06435575071902 -40.640625 0 0 127 0
131.06435575071902 -40.242188 0 0 127 0
131.06435575071902 -39.84375 0 0 127 0
131.06435575071902 -39.445313 0 0 127 0
131.06435575071902 -39.046875 0 0 127 0
131.06435575071902 -38.648438 0 0 127 0
131.06435575071902 -38.25 0 0 127 0
131.06435575071902 -37.851563 0 0 127 0
131.06435575071902 -37.453125 0 0 127 0
131.06435575071902 -37.054688 0 0 127 0
131.06435575071902 -36.65625 0 0 127 0
131.06435575071902 -36.257813 0 0 127 0
131.06435575071902 -35.859375 0 0 127 0
131.06435575071902 -35.460938 0 0 127 0
131.06435575071902 -35.0625 0 0 127 0
131.06435575071902 -34.664063 0 0 127 0
131.06435575071902 -34.265625 0 0 127 0
131.06435575071902 -33.867188 0 0 127 0
131.06435575071902 -33.46875 0 0 127 0
131.06435575071902 -33.070313 0 0 127 0
131.06435575071902 -32.671875 0 0 127 0
131.06435575071902 -32.273438 0 0 127 0
131.06435575071902 -31.875 0 0 127 0
131.06435575071902 -31.476563 0 0 127 0
131.06435575071902 -31.078125 0 0 127 0
131.06435575071902 -30.679688 0 0 127 0
131.06435575071902 -30.28125 0 0 127 0
131.06435575071902 -29.882813 0 0 127 0
131.06435575071902 -29.484375 0 0 127 0
131.06435575071902 -29.085938 0 0 127 0
131.06435575071902 -28.6875 0 0 127 0
131.06435575071902 -28.289063 0 0 127 0
131.06435575071902 -27.890625 0 0 127 0
131.06435575071902 -27.492188 0 0 127 0
131.06435575071902 -27.09375 0 0 127 0
131.06435575071902 -26.695313 0 0 127 0
131.06435575071902 -26.296875 0 0 127 0
131.06435575071902 -25.898438 0 0 127 0
131.06435575071902 -25.5 0 0 127 0
131.06435575071902 -25.101563 0 0 127 0
131.06435575071902 -24.703125 0 0 127 0
131.06435575071902 -24.304688 0 0 127 0
131.06435575071902 -23.90625 0 0 127 0
131.06435575071902 -23.507813 0 0 127 0
131.06435575071902 -23.109375 0 0 127 0
131.06435575071902 -22.710938 0 0 127 0
131.06435575071902 -22.3125 0 0 127 0
131.06435575071902 -21.914063 0 0 127 0
131.06435575071902 -21.515625 0 0 127 0
131.06435575071902 -21.117188 0 0 127 0
131.06435575071902 -20.71875 0 0 127 0
131.06435575071902 -20.320313 0 0 127 0
131.06435575071902 -19.921875 0 0 127 0
131.06435575071902 -19.523438 0.611768 0 127 0
131.06435575071902 -19.125 0.580392 0 127 0
131.06435575071902 -18.726563 1.945096 0 127 0
131.06435575071902 -18.328125 2.30588 0 127 0
131.06435575071902 -17.929688 5.772552 0 127 0
131.06435575071902 -17.53125 3.058824 0 127 0
131.06435575071902 -17.132813 3.466664 0 127 0
131.06435575071902 -16.734375 5.443136 0 127 0
131.06435575071902 -16.335938 6.447056 0 127 0
131.06435575071902 -15.9375 7.937256 0 127 0
131.06435575071902 -15.539063 7.937256 0 127 0
131.06435575071902 -15.140625 7.686272 0 127 0
131.06435575071902 -14.742188 5.254904 0 127 0
131.06435575071902 -14.34375 0.031376 0 127 0
131.06435575071902 -13.945313 0.70588 0 127 0
131.06435575071902 -13.546875 2.760784 0 127 0
131.06435575071902 -13.148438 2.211768 0 127 0
131.06435575071902 -12.75 3.70196 0 127 0
131.06435575071902 -12.351563 4.70588 0 127 0
131.06435575071902 -11.953125 3.733336 0 127 0
131.06435575071902 -11.554688 2.49412 0 127 0
131.06435575071902 -11.15625 3.027448 0 127 0
131.06435575071902 -10.757813 5.082352 0 127 0
131.06435575071902 -10.359375 1.850984 0 127 0
131.06435575071902 -9.960938 3.137256 0 127 0
131.06435575071902 -9.5625 3.247056 0 127 0
131.06435575071902 -9.164063 1.788232 0 127 0
131.06435575071902 -8.765625 0.439216 0 127 0
131.06435575071902 -8.367188 0.470592 0 127 0
131.06435575071902 -7.96875 0.219608 0 127 0
131.06435575071902 -7.570313 0.831376 0 127 0
131.06435575071902 -7.171875 0 0 127 0
131.06435575071902 -6.773438 0.062744 0 127 0
131.06435575071902 -6.375 0 0 127 0
131.06435575071902 -5.976563 0.282352 0 127 0
131.06435575071902 -5.578125 0.031376 0 127 0
131.06435575071902 -5.179688 0 0 127 0
131.06435575071902 -4.78125 0.09412 0 127 0
131.06435575071902 -4.382813 0 0 127 0
131.06435575071902 -3.984375 0.329408 0 127 0
131.06435575071902 -3.585938 0.188232 0 127 0
131.06435575071902 -3.1875 0.156864 0 127 0
131.06435575071902 -2.789063 0.376472 0 127 0
131.06435575071902 -2.390625 0.141176 0 127 0
131.06435575071902 -1.992188 0.156864 0 127 0
131.06435575071902 -1.59375 0.031376 0 127 0
131.06435575071902 -1.195313 0.250984 0 127 0
131.06435575071902 -0.796875 0.721568 0 127 0
131.06435575071902 -0.398438 0.345096 0 127 0
131.06435575071902 0 1.286272 0 127 0
131.06435575071902 0.398437 2.713728 0 127 0
131.06435575071902 0.796875 4.156864 0 127 0
131.06435575071902 1.195312 2.682352 0 127 0
131.06435575071902 1.59375 7.937256 0 127 0
131.06435575071902 1.992187 5.286272 0 127 0
131.06435575071902 2.390625 3.341176 0 127 0
131.06435575071902 2.789062 0.847056 0 127 0
131.06435575071902 3.1875 0.1098 0 127 0
131.06435575071902 3.585937 0.752944 0 127 0
131.06435575071902 3.984375 2.243136 0 127 0
131.06435575071902 4.382812 1.380392 0 127 0
131.06435575071902 4.78125 1.113728 0 127 0
131.06435575071902 5.179687 0.784312 0 127 0
131.06435575071902 5.578125 0.627448 0 127 0
131.06435575071902 5.976562 0.156864 0 127 0
131.06435575071902 6.375 0.737256 0 127 0
131.06435575071902 6.773437 0.721568 0 127 0
131.06435575071902 7.171875 0.125488 0 127 0
131.06435575071902 7.570312 0.439216 0 127 0
131.06435575071902 7.96875 1.4902 0 127 0
131.06435575071902 8.367187 0.89412 0 127 0
131.06435575071902 8.765625 1.443136 0 127 0
131.06435575071902 9.164062 0.878432 0 127 0
131.06435575071902 9.5625 2.69804 0 127 0
131.06435575071902 9.960937 2.4 0 127 0
131.06435575071902 10.359375 1.521568 0 127 0
131.06435575071902 10.757812 2.682352 0 127 0
131.06435575071902 11.15625 4.109808 0 127 0
131.06435575071902 11.554687 2.117648 0 127 0
131.06435575071902 11.953125 6.556864 0 127 0
131.06435575071902 12.351562 2.10196 0 127 0
131.06435575071902 12.75 4 0 127 0
131.06435575071902 13.148437 2.80784 0 127 0
131.06435575071902 13.546875 0.847056 0 127 0
131.06435575071902 13.945312 2.572552 0 127 0
131.06435575071902 14.34375 2.964704 0 127 0
131.06435575071902 14.742187 5.050984 0 127 0
131.06435575071902 15.140625 7.717648 0 127 0
131.06435575071902 15.539062 3.858824 0 127 0
131.06435575071902 15.9375 7.686272 0 127 0
131.06435575071902 16.335937 3.623528 0 127 0
131.06435575071902 16.734375 3.529408 0 127 0
131.06435575071902 17.132812 1.254904 0 127 0
131.06435575071902 17.53125 3.184312 0 127 0
131.06435575071902 17.929687 3.450984 0 127 0
131.06435575071902 18.328125 0.219608 0 127 0
131.06435575071902 18.726562 0 0 127 0
131.06435575071902 19.125 0 0 127 0
131.06435575071902 19.523438 0.89412 0 127 0
131.06435575071902 19.921875 0 0 127 0
131.06435575071902 20.320313 0 0 127 0
131.06435575071902 20.71875 0 0 127 0
131.06435575071902 21.117188 0 0 127 0
131.06435575071902 21.515625 0 0 127 0
131.06435575071902 21.914063 0 0 127 0
131.06435575071902 22.3125 0 0 127 0
131.06435575071902 22.710938 0 0 127 0
131.06435575071902 23.109375 0 0 127 0
131.06435575071902 23.507813 0 0 127 0
131.06435575071902 23.90625 0 0 127 0
131.06435575071902 24.304688 0 0 127 0
131.06435575071902 24.703125 0 0 127 0
131.06435575071902 25.101563 0 0 127 0
131.06435575071902 25.5 0 0 127 0
131.06435575071902 25.898438 0 0 127 0
131.06435575071902 26.296875 0 0 127 0
131.06435575071902 26.695313 0 0 127 0
131.06435575071902 27.09375 0 0 127 0
131.06435575071902 27.492188 0 0 127 0
131.06435575071902 27.890625 0 0 127 0
131.06435575071902 28.289063 0 0 127 0
131.06435575071902 28.6875 0 0 127 0
131.06435575071902 29.085938 0 0 127 0
131.06435575071902 29.484375 0 0 127 0
131.06435575071902 29.882813 0 0 127 0
131.06435575071902 30.28125 0 0 127 0
131.06435575071902 30.679688 0 0 127 0
131.06435575071902 31.078125 0 0 127 0
131.06435575071902 31.476563 0 0 127 0
131.06435575071902 31.875 0 0 127 0
131.06435575071902 32.273438 0 0 127 0
131.06435575071902 32.671875 0 0 127 0
131.06435575071902 33.070313 0 0 127 0
131.06435575071902 33.46875 0 0 127 0
131.06435575071902 33.867188 0 0 127 0
131.06435575071902 34.265625 0 0 127 0
131.06435575071902 34.664063 0 0 127 0
131.06435575071902 35.0625 0 0 127 0
131.06435575071902 35.460938 0 0 127 0
131.06435575071902 35.859375 0 0 127 0
131.06435575071902 36.257813 0 0 127 0
131.06435575071902 36.65625 0 0 127 0
131.06435575071902 37.054688 0 0 127 0
131.06435575071902 37.453125 0 0 127 0
131.06435575071902 37.851563 0 0 127 0
131.06435575071902 38.25 0 0 127 0
131.06435575071902 38.648438 0 0 127 0
131.06435575071902 39.046875 0 0 127 0
131.06435575071902 39.445313 0 0 127 0
131.06435575071902 39.84375 0 0 127 0
131.06435575071902 40.242188 0 0 127 0
131.06435575071902 40.640625 0 0 127 0
131.06435575071902 41.039063 0 0 127 0
131.06435575071902 41.4375 0 0 127 0
131.06435575071902 41.835938 0 0 127 0
131.06435575071902 42.234375 0 0 127 0
131.06435575071902 42.632813 0 0 127 0
131.06435575071902 43.03125 0 0 127 0
131.06435575071902 43.429688 0 0 127 0
131.06435575071902 43.828125 0 0 127 0
131.06435575071902 44.226563 0 0 127 0
131.06435575071902 44.625 0 0 127 0
131.06435575071902 45.023438 0 0 127 0
131.06435575071902 45.421875 0 0 127 0
131.06435575071902 45.820313 0 0 127 0
131.06435575071902 46.21875 0 0 127 0
131.06435575071902 46.617188 0 0 127 0
131.06435575071902 47.015625 0 0 127 0
131.06435575071902 47.414063 0 0 127 0
131.06435575071902 47.8125 0 0 127 0
131.06435575071902 48.210938 0 0 127 0
131.06435575071902 48.609375 0 0 127 0
131.06435575071902 49.007813 0 0 127 0
131.06435575071902 49.40625 0 0 127 0
131.46279375071902 -49.40625 0 0 127 0
131.46279375071902 -49.007813 0 0 127 0
131.46279375071902 -48.609375 0 0 127 0
131.46279375071902 -48.210938 0 0 127 0
131.46279375071902 -47.8125 0 0 127 0
131.46279375071902 -47.414063 0 0 127 0
131.46279375071902 -47.015625 0 0 127 0
131.46279375071902 -46.617188 0 0 127 0
131.46279375071902 -46.21875 0 0 127 0
131.46279375071902 -45.820313 0 0 127 0
131.46279375071902 -45.421875 0 0 127 0
131.46279375071902 -45.023438 0 0 127 0
131.46279375071902 -44.625 0 0 127 0
131.46279375071902 -44.226563 0 0 127 0
131.46279375071902 -43.828125 0 0 127 0
131.46279375071902 -43.429688 0 0 127 0
131.46279375071902 -43.03125 0 0 127 0
131.46279375071902 -42.632813 0 0 127 0
131.46279375071902 -42.234375 0 0 127 0
131.46279375071902 -41.835938 0 0 127 0
131.46279375071902 -41.4375 0 0 127 0
131.46279375071902 -41.039063 0 0 127 0
131.46279375071902 -40.640625 0 0 127 0
131.46279375071902 -40.242188 0 0 127 0
131.46279375071902 -39.84375 0 0 127 0
131.46279375071902 -39.445313 0 0 127 0
131.46279375071902 -39.046875 0 0 127 0
131.46279375071902 -38.648438 0 0 127 0
131.46279375071902 -38.25 0 0 127 0
131.46279375071902 -37.851563 0 0 127 0
131.46279375071902 -37.453125 0 0 127 0
131.46279375071902 -37.054688 0 0 127 0
131.46279375071902 -36.65625 0 0 127 0
131.46279375071902 -36.257813 0 0 127 0
131.46279375071902 -35.859375 0 0 127 0
131.46279375071902 -35.460938 0 0 127 0
131.46279375071902 -35.0625 0 0 127 0
131.46279375071902 -34.664063 0 0 127 0
131.46279375071902 -34.265625 0 0 127 0
131.46279375071902 -33.867188 0 0 127 0
131.46279375071902 -33.46875 0 0 127 0
131.46279375071902 -33.070313 0 0 127 0
131.46279375071902 -32.671875 0 0 127 0
131.46279375071902 -32.273438 0 0 127 0
131.46279375071902 -31.875 0 0 127 0
131.46279375071902 -31.476563 0 0 127 0
131.46279375071902 -31.078125 0 0 127 0
131.46279375071902 -30.679688 0 0 127 0
131.46279375071902 -30.28125 0 0 127 0
131.46279375071902 -29.882813 0 0 127 0
131.46279375071902 -29.484375 0 0 127 0
131.46279375071902 -29.085938 0 0 127 0
131.46279375071902 -28.6875 0 0 127 0
131.46279375071902 -28.289063 0 0 127 0
131.46279375071902 -27.890625 0 0 127 0
131.46279375071902 -27.492188 0 0 127 0
131.46279375071902 -27.09375 0 0 127 0
131.46279375071902 -26.695313 0 0 127 0
131.46279375071902 -26.296875 0 0 127 0
131.46279375071902 -25.898438 0 0 127 0
131.46279375071902 -25.5 0 0 127 0
131.46279375071902 -25.101563 0 0 127 0
131.46279375071902 -24.703125 0 0 127 0
131.46279375071902 -24.304688 0 0 127 0
131.46279375071902 -23.90625 0 0 127 0
131.46279375071902 -23.507813 0 0 127 0
131.46279375071902 -23.109375 0 0 127 0
131.46279375071902 -22.710938 0 0 127 0
131.46279375071902 -22.3125 0 0 127 0
131.46279375071902 -21.914063 0 0 127 0
131.46279375071902 -21.515625 0 0 127 0
131.46279375071902 -21.117188 0 0 127 0
131.46279375071902 -20.71875 0 0 127 0
131.46279375071902 -20.320313 0 0 127 0
131.46279375071902 -19.921875 0 0 127 0
131.46279375071902 -19.523438 1.129408 0 127 0
131.46279375071902 -19.125 0 0 127 0
131.46279375071902 -18.726563 2.447056 0 127 0
131.46279375071902 -18.328125 1.427448 0 127 0
131.46279375071902 -17.929688 5.443136 0 127 0
131.46279375071902 -17.53125 4.517648 0 127 0
131.46279375071902 -17.132813 1.850984 0 127 0
131.46279375071902 -16.734375 5.09804 0 127 0
131.46279375071902 -16.335938 5.176472 0 127 0
131.46279375071902 -15.9375 2.070592 0 127 0
131.46279375071902 -15.539063 5.725488 0 127 0
131.46279375071902 -15.140625 1.427448 0 127 0
131.46279375071902 -14.742188 2.760784 0 127 0
131.46279375071902 -14.34375 2.243136 0 127 0
131.46279375071902 -13.945313 0.031376 0 127 0
131.46279375071902 -13.546875 3.623528 0 127 0
131.46279375071902 -13.148438 2.650984 0 127 0
131.46279375071902 -12.75 4.031376 0 127 0
131.46279375071902 -12.351563 2.415688 0 127 0
131.46279375071902 -11.953125 1.647056 0 127 0
131.46279375071902 -11.554688 3.937256 0 127 0
131.46279375071902 -11.15625 2.949016 0 127 0
131.46279375071902 -10.757813 2.854904 0 127 0
131.46279375071902 -10.359375 4.188232 0 127 0
131.46279375071902 -9.960938 2.054904 0 127 0
131.46279375071902 -9.5625 2.086272 0 127 0
131.46279375071902 -9.164063 2.823528 0 127 0
131.46279375071902 -8.765625 1.223528 0 127 0
131.46279375071902 -8.367188 4.862744 0 127 0
131.46279375071902 -7.96875 1.20784 0 127 0
131.46279375071902 -7.570313 0.50196 0 127 0
131.46279375071902 -7.171875 0.878432 0 127 0
131.46279375071902 -6.773438 0 0 127 0
131.46279375071902 -6.375 0.031376 0 127 0
131.46279375071902 -5.976563 0.062744 0 127 0
131.46279375071902 -5.578125 0 0 127 0
131.46279375071902 -5.179688 0.50196 0 127 0
131.46279375071902 -4.78125 0.737256 0 127 0
131.46279375071902 -4.382813 0.360784 0 127 0
131.46279375071902 -3.984375 0.376472 0 127 0
131.46279375071902 -3.585938 0.031376 0 127 0
131.46279375071902 -3.1875 0.250984 0 127 0
131.46279375071902 -2.789063 0.125488 0 127 0
131.46279375071902 -2.390625 0.09412 0 127 0
131.46279375071902 -1.992188 0.282352 0 127 0
131.46279375071902 -1.59375 0.658824 0 127 0
131.46279375071902 -1.195313 1.160784 0 127 0
131.46279375071902 -0.796875 0.062744 0 127 0
131.46279375071902 -0.398438 0.219608 0 127 0
131.46279375071902 0 1.30196 0 127 0
131.46279375071902 0.398437 2.478432 0 127 0
131.46279375071902 0.796875 4.39216 0 127 0
131.46279375071902 1.195312 4.40784 0 127 0
131.46279375071902 1.59375 7.341176 0 127 0
131.46279375071902 1.992187 5.552944 0 127 0
131.46279375071902 2.390625 1.254904 0 127 0
131.46279375071902 2.789062 0.517648 0 127 0
131.46279375071902 3.1875 0.250984 0 127 0
131.46279375071902 3.585937 0.9098 0 127 0
131.46279375071902 3.984375 0.988232 0 127 0
131.46279375071902 4.382812 0.752944 0 127 0
131.46279375071902 4.78125 1.270592 0 127 0
131.46279375071902 5.179687 1.929408 0 127 0
131.46279375071902 5.578125 2.384312 0 127 0
131.46279375071902 5.976562 0.580392 0 127 0
131.46279375071902 6.375 0.031376 0 127 0
131.46279375071902 6.773437 0.59608 0 127 0
131.46279375071902 7.171875 0.062744 0 127 0
131.46279375071902 7.570312 0.188232 0 127 0
131.46279375071902 7.96875 2.415688 0 127 0
131.46279375071902 8.367187 0.737256 0 127 0
131.46279375071902 8.765625 2.99608 0 127 0
131.46279375071902 9.164062 2.933336 0 127 0
131.46279375071902 9.5625 2.713728 0 127 0
131.46279375071902 9.960937 0.59608 0 127 0
131.46279375071902 10.359375 1.741176 0 127 0
131.46279375071902 10.757812 3.247056 0 127 0
131.46279375071902 11.15625 1.00392 0 127 0
131.46279375071902 11.554687 0.423528 0 127 0
131.46279375071902 11.953125 1.882352 0 127 0
131.46279375071902 12.351562 3.058824 0 127 0
131.46279375071902 12.75 4.752944 0 127 0
131.46279375071902 13.148437 2.823528 0 127 0
131.46279375071902 13.546875 1.066664 0 127 0
131.46279375071902 13.945312 2.760784 0 127 0
131.46279375071902 14.34375 3.717648 0 127 0
131.46279375071902 14.742187 5.6 0 127 0
131.46279375071902 15.140625 3.60784 0 127 0
131.46279375071902 15.539062 3.827448 0 127 0
131.46279375071902 15.9375 4.815688 0 127 0
131.46279375071902 16.335937 3.2 0 127 0
131.46279375071902 16.734375 2.243136 0 127 0
131.46279375071902 17.132812 5.678432 0 127 0
131.46279375071902 17.53125 3.011768 0 127 0
131.46279375071902 17.929687 3.49804 0 127 0
131.46279375071902 18.328125 1.239216 0 127 0
131.46279375071902 18.726562 0 0 127 0
131.46279375071902 19.125 0.517648 0 127 0
131.46279375071902 19.523438 0 0 127 0
131.46279375071902 19.921875 0 0 127 0
131.46279375071902 20.320313 0 0 127 0
131.46279375071902 20.71875 0 0 127 0
131.46279375071902 21.117188 0 0 127 0
131.46279375071902 21.515625 0 0 127 0
131.46279375071902 21.914063 0 0 127 0
131.46279375071902 22.3125 0 0 127 0
131.46279375071902 22.710938 0 0 127 0
131.46279375071902 23.109375 0 0 127 0
131.46279375071902 23.507813 0 0 127 0
131.46279375071902 23.90625 0 0 127 0
131.46279375071902 24.304688 0 0 127 0
131.46279375071902 24.703125 0 0 127 0
131.46279375071902 25.101563 0 0 127 0
131.46279375071902 25.5 0 0 127 0
131.46279375071902 25.898438 0 0 127 0
131.46279375071902 26.296875 0 0 127 0
131.46279375071902 26.695313 0 0 127 0
131.46279375071902 27.09375 0 0 127 0
131.46279375071902 27.492188 0 0 127 0
131.46279375071902 27.890625 0 0 127 0
131.46279375071902 28.289063 0 0 127 0
131.46279375071902 28.6875 0 0 127 0
131.46279375071902 29.085938 0 0 127 0
131.46279375071902 29.484375 0 0 127 0
131.46279375071902 29.882813 0 0 127 0
131.46279375071902 30.28125 0 0 127 0
131.46279375071902 30.679688 0 0 127 0
131.46279375071902 31.078125 0 0 127 0
131.46279375071902 31.476563 0 0 127 0
131.46279375071902 31.875 0 0 127 0
131.46279375071902 32.273438 0 0 127 0
131.46279375071902 32.671875 0 0 127 0
131.46279375071902 33.070313 0 0 127 0
131.46279375071902 33.46875 0 0 127 0
131.46279375071902 33.867188 0 0 127 0
131.46279375071902 34.265625 0 0 127 0
131.46279375071902 34.664063 0 0 127 0
131.46279375071902 35.0625 0 0 127 0
131.46279375071902 35.460938 0 0 127 0
131.46279375071902 35.859375 0 0 127 0
131.46279375071902 36.257813 0 0 127 0
131.46279375071902 36.65625 0 0 127 0
131.46279375071902 37.054688 0 0 127 0
131.46279375071902 37.453125 0 0 127 0
131.46279375071902 37.851563 0 0 127 0
131.46279375071902 38.25 0 0 127 0
131.46279375071902 38.648438 0 0 127 0
131.46279375071902 39.046875 0 0 127 0
131.46279375071902 39.445313 0 0 127 0
131.46279375071902 39.84375 0 0 127 0
131.46279375071902 40.242188 0 0 127 0
131.46279375071902 40.640625 0 0 127 0
131.46279375071902 41.039063 0 0 127 0
131.46279375071902 41.4375 0 0 127 0
131.46279375071902 41.835938 0 0 127 0
131.46279375071902 42.234375 0 0 127 0
131.46279375071902 42.632813 0 0 127 0
131.46279375071902 43.03125 0 0 127 0
131.46279375071902 43.429688 0 0 127 0
131.46279375071902 43.828125 0 0 127 0
131.46279375071902 44.226563 0 0 127 0
131.46279375071902 44.625 0 0 127 0
131.46279375071902 45.023438 0 0 127 0
131.46279375071902 45.421875 0 0 127 0
131.46279375071902 45.820313 0 0 127 0
131.46279375071902 46.21875 0 0 127 0
131.46279375071902 46.617188 0 0 127 0
131.46279375071902 47.015625 0 0 127 0
131.46279375071902 47.414063 0 0 127 0
131.46279375071902 47.8125 0 0 127 0
131.46279375071902 48.210938 0 0 127 0
131.46279375071902 48.609375 0 0 127 0
131.46279375071902 49.007813 0 0 127 0
131.46279375071902 49.40625 0 0 127 0
131.86123075071902 -49.40625 0 0 127 0
131.86123075071902 -49.007813 0 0 127 0
131.86123075071902 -48.609375 0 0 127 0
131.86123075071902 -48.210938 0 0 127 0
131.86123075071902 -47.8125 0 0 127 0
131.86123075071902 -47.414063 0 0 127 0
131.86123075071902 -47.015625 0 0 127 0
131.86123075071902 -46.617188 0 0 127 0
131.86123075071902 -46.21875 0 0 127 0
131.86123075071902 -45.820313 0 0 127 0
131.86123075071902 -45.421875 0 0 127 0
131.86123075071902 -45.023438 0 0 127 0
131.86123075071902 -44.625 0 0 127 0
131.86123075071902 -44.226563 0 0 127 0
131.86123075071902 -43.828125 0 0 127 0
131.86123075071902 -43.429688 0 0 127 0
131.86123075071902 -43.03125 0 0 127 0
131.86123075071902 -42.632813 0 0 127 0
131.86123075071902 -42.234375 0 0 127 0
131.86123075071902 -41.835938 0 0 127 0
131.86123075071902 -41.4375 0 0 127 0
131.86123075071902 -41.039063 0 0 127 0
131.86123075071902 -40.640625 0 0 127 0
131.86123075071902 -40.242188 0 0 127 0
131.86123075071902 -39.84375 0 0 127 0
131.86123075071902 -39.445313 0 0 127 0
131.86123075071902 -39.046875 0 0 127 0
131.86123075071902 -38.648438 0 0 127 0
131.86123075071902 -38.25 0 0 127 0
131.86123075071902 -37.851563 0 0 127 0
131.86123075071902 -37.453125 0 0 127 0
131.86123075071902 -37.054688 0 0 127 0
131.86123075071902 -36.65625 0 0 127 0
131.86123075071902 -36.257813 0 0 127 0
131.86123075071902 -35.859375 0 0 127 0
131.86123075071902 -35.460938 0 0 127 0
131.86123075071902 -35.0625 0 0 127 0
131.86123075071902 -34.664063 0 0 127 0
131.86123075071902 -34.265625 0 0 127 0
131.86123075071902 -33.867188 0 0 127 0
131.86123075071902 -33.46875 0 0 127 0
131.86123075071902 -33.070313 0 0 127 0
131.86123075071902 -32.671875 0 0 127 0
131.86123075071902 -32.273438 0 0 127 0
131.86123075071902 -31.875 0 0 127 0
131.86123075071902 -31.476563 0 0 127 0
131.86123075071902 -31.078125 0 0 127 0
131.86123075071902 -30.679688 0 0 127 0
131.86123075071902 -30.28125 0 0 127 0
131.86123075071902 -29.882813 0 0 127 0
131.86123075071902 -29.484375 0 0 127 0
131.86123075071902 -29.085938 0 0 127 0
131.86123075071902 -28.6875 0 0 127 0
131.86123075071902 -28.289063 0 0 127 0
131.86123075071902 -27.890625 0 0 127 0
131.86123075071902 -27.492188 0 0 127 0
131.86123075071902 -27.09375 0 0 127 0
131.86123075071902 -26.695313 0 0 127 0
131.86123075071902 -26.296875 0 0 127 0
131.86123075071902 -25.898438 0 0 127 0
131.86123075071902 -25.5 0 0 127 0
131.86123075071902 -25.101563 0 0 127 0
131.86123075071902 -24.703125 0 0 127 0
131.86123075071902 -24.304688 0 0 127 0
131.86123075071902 -23.90625 0 0 127 0
131.86123075071902 -23.507813 0 0 127 0
131.86123075071902 -23.109375 0 0 127 0
131.86123075071902 -22.710938 0 0 127 0
131.86123075071902 -22.3125 0 0 127 0
131.86123075071902 -21.914063 0 0 127 0
131.86123075071902 -21.515625 0 0 127 0
131.86123075071902 -21.117188 0 0 127 0
131.86123075071902 -20.71875 0 0 127 0
131.86123075071902 -20.320313 0 0 127 0
131.86123075071902 -19.921875 0 0 127 0
131.86123075071902 -19.523438 1.537256 0 127 0
131.86123075071902 -19.125 0 0 127 0
131.86123075071902 -18.726563 0.533336 0 127 0
131.86123075071902 -18.328125 0.345096 0 127 0
131.86123075071902 -17.929688 5.584312 0 127 0
131.86123075071902 -17.53125 2.99608 0 127 0
131.86123075071902 -17.132813 4.062744 0 127 0
131.86123075071902 -16.734375 5.349016 0 127 0
131.86123075071902 -16.335938 4.721568 0 127 0
131.86123075071902 -15.9375 6.745096 0 127 0
131.86123075071902 -15.539063 4.156864 0 127 0
131.86123075071902 -15.140625 5.254904 0 127 0
131.86123075071902 -14.742188 4.125488 0 127 0
131.86123075071902 -14.34375 3.60784 0 127 0
131.86123075071902 -13.945313 2.776472 0 127 0
131.86123075071902 -13.546875 0.188232 0 127 0
131.86123075071902 -13.148438 1.945096 0 127 0
131.86123075071902 -12.75 1.411768 0 127 0
131.86123075071902 -12.351563 2.588232 0 127 0
131.86123075071902 -11.953125 0.9098 0 127 0
131.86123075071902 -11.554688 0.862744 0 127 0
131.86123075071902 -11.15625 4.674512 0 127 0
131.86123075071902 -10.757813 1.50588 0 127 0
131.86123075071902 -10.359375 4.156864 0 127 0
131.86123075071902 -9.960938 1.568624 0 127 0
131.86123075071902 -9.5625 1.30196 0 127 0
131.86123075071902 -9.164063 1.129408 0 127 0
131.86123075071902 -8.765625 1.317648 0 127 0
131.86123075071902 -8.367188 0.156864 0 127 0
131.86123075071902 -7.96875 1.082352 0 127 0
131.86123075071902 -7.570313 0.250984 0 127 0
131.86123075071902 -7.171875 0.219608 0 127 0
131.86123075071902 -6.773438 0 0 127 0
131.86123075071902 -6.375 0.062744 0 127 0
131.86123075071902 -5.976563 0 0 127 0
131.86123075071902 -5.578125 0 0 127 0
131.86123075071902 -5.179688 0.219608 0 127 0
131.86123075071902 -4.78125 0.250984 0 127 0
131.86123075071902 -4.382813 0 0 127 0
131.86123075071902 -3.984375 0.156864 0 127 0
131.86123075071902 -3.585938 0.282352 0 127 0
131.86123075071902 -3.1875 0 0 127 0
131.86123075071902 -2.789063 0.156864 0 127 0
131.86123075071902 -2.390625 1.960784 0 127 0
131.86123075071902 -1.992188 1.474512 0 127 0
131.86123075071902 -1.59375 0.188232 0 127 0
131.86123075071902 -1.195313 0 0 127 0
131.86123075071902 -0.796875 0.658824 0 127 0
131.86123075071902 -0.398438 0.59608 0 127 0
131.86123075071902 0 2.80784 0 127 0
131.86123075071902 0.398437 2.133336 0 127 0
131.86123075071902 0.796875 5.145096 0 127 0
131.86123075071902 1.195312 3.59216 0 127 0
131.86123075071902 1.59375 4.8 0 127 0
131.86123075071902 1.992187 4.047056 0 127 0
131.86123075071902 2.390625 0.439216 0 127 0
131.86123075071902 2.789062 1.333336 0 127 0
131.86123075071902 3.1875 0.580392 0 127 0
131.86123075071902 3.585937 0.219608 0 127 0
131.86123075071902 3.984375 0.580392 0 127 0
131.86123075071902 4.382812 1.317648 0 127 0
131.86123075071902 4.78125 0.50196 0 127 0
131.86123075071902 5.179687 0.533336 0 127 0
131.86123075071902 5.578125 0.988232 0 127 0
131.86123075071902 5.976562 4.062744 0 127 0
131.86123075071902 6.375 0.59608 0 127 0
131.86123075071902 6.773437 0 0 127 0
131.86123075071902 7.171875 0.737256 0 127 0
131.86123075071902 7.570312 0 0 127 0
131.86123075071902 7.96875 0.40784 0 127 0
131.86123075071902 8.367187 0.376472 0 127 0
131.86123075071902 8.765625 0.972552 0 127 0
131.86123075071902 9.164062 2.431376 0 127 0
131.86123075071902 9.5625 3.686272 0 127 0
131.86123075071902 9.960937 4.972552 0 127 0
131.86123075071902 10.359375 1.427448 0 127 0
131.86123075071902 10.757812 1.4902 0 127 0
131.86123075071902 11.15625 1.411768 0 127 0
131.86123075071902 11.554687 0.50196 0 127 0
131.86123075071902 11.953125 0 0 127 0
131.86123075071902 12.351562 0.8 0 127 0
131.86123075071902 12.75 2.478432 0 127 0
131.86123075071902 13.148437 0.9098 0 127 0
131.86123075071902 13.546875 1.19216 0 127 0
131.86123075071902 13.945312 1.443136 0 127 0
131.86123075071902 14.34375 5.678432 0 127 0
131.86123075071902 14.742187 4.8 0 127 0
131.86123075071902 15.140625 5.50588 0 127 0
131.86123075071902 15.539062 5.929408 0 127 0
131.86123075071902 15.9375 7.49804 0 127 0
131.86123075071902 16.335937 5.09804 0 127 0
131.86123075071902 16.734375 2.745096 0 127 0
131.86123075071902 17.132812 2.525488 0 127 0
131.86123075071902 17.53125 0.941176 0 127 0
131.86123075071902 17.929687 5.913728 0 127 0
131.86123075071902 18.328125 0 0 127 0
131.86123075071902 18.726562 0 0 127 0
131.86123075071902 19.125 0 0 127 0
131.86123075071902 19.523438 1.20784 0 127 0
131.86123075071902 19.921875 0 0 127 0
131.86123075071902 20.320313 0 0 127 0
131.86123075071902 20.71875 0 0 127 0
131.86123075071902 21.117188 0 0 127 0
131.86123075071902 21.515625 0 0 127 0
131.86123075071902 21.914063 0 0 127 0
131.86123075071902 22.3125 0 0 127 0
131.86123075071902 22.710938 0 0 127 0
131.86123075071902 23.109375 0 0 127 0
131.86123075071902 23.507813 0 0 127 0
131.86123075071902 23.90625 0 0 127 0
131.86123075071902 24.304688 0 0 127 0
131.86123075071902 24.703125 0 0 127 0
131.86123075071902 25.101563 0 0 127 0
131.86123075071902 25.5 0 0 127 0
131.86123075071902 25.898438 0 0 127 0
131.86123075071902 26.296875 0 0 127 0
131.86123075071902 26.695313 0 0 127 0
131.86123075071902 27.09375 0 0 127 0
131.86123075071902 27.492188 0 0 127 0
131.86123075071902 27.890625 0 0 127 0
131.86123075071902 28.289063 0 0 127 0
131.86123075071902 28.6875 0 0 127 0
131.86123075071902 29.085938 0 0 127 0
131.86123075071902 29.484375 0 0 127 0
131.86123075071902 29.882813 0 0 127 0
131.86123075071902 30.28125 0 0 127 0
131.86123075071902 30.679688 0 0 127 0
131.86123075071902 31.078125 0 0 127 0
131.86123075071902 31.476563 0 0 127 0
131.86123075071902 31.875 0 0 127 0
131.86123075071902 32.273438 0 0 127 0
131.86123075071902 32.671875 0 0 127 0
131.86123075071902 33.070313 0 0 127 0
131.86123075071902 33.46875 0 0 127 0
131.86123075071902 33.867188 0 0 127 0
131.86123075071902 34.265625 0 0 127 0
131.86123075071902 34.664063 0 0 127 0
131.86123075071902 35.0625 0 0 127 0
131.86123075071902 35.460938 0 0 127 0
131.86123075071902 35.859375 0 0 127 0
131.86123075071902 36.257813 0 0 127 0
131.86123075071902 36.65625 0 0 127 0
131.86123075071902 37.054688 0 0 127 0
131.86123075071902 37.453125 0 0 127 0
131.86123075071902 37.851563 0 0 127 0
131.86123075071902 38.25 0 0 127 0
131.86123075071902 38.648438 0 0 127 0
131.86123075071902 39.046875 0 0 127 0
131.86123075071902 39.445313 0 0 127 0
131.86123075071902 39.84375 0 0 127 0
131.86123075071902 40.242188 0 0 127 0
131.86123075071902 40.640625 0 0 127 0
131.86123075071902 41.039063 0 0 127 0
131.86123075071902 41.4375 0 0 127 0
131.86123075071902 41.835938 0 0 127 0
131.86123075071902 42.234375 0 0 127 0
131.86123075071902 42.632813 0 0 127 0
131.86123075071902 43.03125 0 0 127 0
131.86123075071902 43.429688 0 0 127 0
131.86123075071902 43.828125 0 0 127 0
131.86123075071902 44.226563 0 0 127 0
131.86123075071902 44.625 0 0 127 0
131.86123075071902 45.023438 0 0 127 0
131.86123075071902 45.421875 0 0 127 0
131.86123075071902 45.820313 0 0 127 0
131.86123075071902 46.21875 0 0 127 0
131.86123075071902 46.617188 0 0 127 0
131.86123075071902 47.015625 0 0 127 0
131.86123075071902 47.414063 0 0 127 0
131.86123075071902 47.8125 0 0 127 0
131.86123075071902 48.210938 0 0 127 0
131.86123075071902 48.609375 0 0 127 0
131.86123075071902 49.007813 0 0 127 0
131.86123075071902 49.40625 0 0 127 0
132.25966875071902 -49.40625 0 0 127 0
132.25966875071902 -49.007813 0 0 127 0
132.25966875071902 -48.609375 0 0 127 0
132.25966875071902 -48.210938 0 0 127 0
132.25966875071902 -47.8125 0 0 127 0
132.25966875071902 -47.414063 0 0 127 0
132.25966875071902 -47.015625 0 0 127 0
132.25966875071902 -46.617188 0 0 127 0
132.25966875071902 -46.21875 0 0 127 0
132.25966875071902 -45.820313 0 0 127 0
132.25966875071902 -45.421875 0 0 127 0
132.25966875071902 -45.023438 0 0 127 0
132.25966875071902 -44.625 0 0 127 0
132.25966875071902 -44.226563 0 0 127 0
132.25966875071902 -43.828125 0 0 127 0
132.25966875071902 -43.429688 0 0 127 0
132.25966875071902 -43.03125 0 0 127 0
132.25966875071902 -42.632813 0 0 127 0
132.25966875071902 -42.234375 0 0 127 0
132.25966875071902 -41.835938 0 0 127 0
132.25966875071902 -41.4375 0 0 127 0
132.25966875071902 -41.039063 0 0 127 0
132.25966875071902 -40.640625 0 0 127 0
132.25966875071902 -40.242188 0 0 127 0
132.25966875071902 -39.84375 0 0 127 0
132.25966875071902 -39.445313 0 0 127 0
132.25966875071902 -39.046875 0 0 127 0
132.25966875071902 -38.648438 0 0 127 0
132.25966875071902 -38.25 0 0 127 0
132.25966875071902 -37.851563 0 0 127 0
132.25966875071902 -37.453125 0 0 127 0
132.25966875071902 -37.054688 0 0 127 0
132.25966875071902 -36.65625 0 0 127 0
132.25966875071902 -36.257813 0 0 127 0
132.25966875071902 -35.859375 0 0 127 0
132.25966875071902 -35.460938 0 0 127 0
132.25966875071902 -35.0625 0 0 127 0
132.25966875071902 -34.664063 0 0 127 0
132.25966875071902 -34.265625 0 0 127 0
132.25966875071902 -33.867188 0 0 127 0
132.25966875071902 -33.46875 0 0 127 0
132.25966875071902 -33.070313 0 0 127 0
132.25966875071902 -32.671875 0 0 127 0
132.25966875071902 -32.273438 0 0 127 0
132.25966875071902 -31.875 0 0 127 0
132.25966875071902 -31.476563 0 0 127 0
132.25966875071902 -31.078125 0 0 127 0
132.25966875071902 -30.679688 0 0 127 0
132.25966875071902 -30.28125 0 0 127 0
132.25966875071902 -29.882813 0 0 127 0
132.25966875071902 -29.484375 0 0 127 0
132.25966875071902 -29.085938 0 0 127 0
132.25966875071902 -28.6875 0 0 127 0
132.25966875071902 -28.289063 0 0 127 0
132.25966875071902 -27.890625 0 0 127 0
132.25966875071902 -27.492188 0 0 127 0
132.25966875071902 -27.09375 0 0 127 0
132.25966875071902 -26.695313 0 0 127 0
132.25966875071902 -26.296875 0 0 127 0
132.25966875071902 -25.898438 0 0 127 0
132.25966875071902 -25.5 0 0 127 0
132.25966875071902 -25.101563 0 0 127 0
132.25966875071902 -24.703125 0 0 127 0
132.25966875071902 -24.304688 0 0 127 0
132.25966875071902 -23.90625 0 0 127 0
132.25966875071902 -23.507813 0 0 127 0
132.25966875071902 -23.109375 0 0 127 0
132.25966875071902 -22.710938 0 0 127 0
132.25966875071902 -22.3125 0 0 127 0
132.25966875071902 -21.914063 0 0 127 0
132.25966875071902 -21.515625 0 0 127 0
132.25966875071902 -21.117188 0 0 127 0
132.25966875071902 -20.71875 0 0 127 0
132.25966875071902 -20.320313 0 0 127 0
132.25966875071902 -19.921875 0 0 127 0
132.25966875071902 -19.523438 0.611768 0 127 0
132.25966875071902 -19.125 0 0 127 0
132.25966875071902 -18.726563 0.721568 0 127 0
132.25966875071902 -18.328125 0.188232 0 127 0
132.25966875071902 -17.929688 0.59608 0 127 0
132.25966875071902 -17.53125 3.356864 0 127 0
132.25966875071902 -17.132813 0.752944 0 127 0
132.25966875071902 -16.734375 4.470592 0 127 0
132.25966875071902 -16.335938 2.917648 0 127 0
132.25966875071902 -15.9375 2.447056 0 127 0
132.25966875071902 -15.539063 4.627448 0 127 0
132.25966875071902 -15.140625 4.125488 0 127 0
132.25966875071902 -14.742188 7.121568 0 127 0
132.25966875071902 -14.34375 1.30196 0 127 0
132.25966875071902 -13.945313 1.788232 0 127 0
132.25966875071902 -13.546875 1.09804 0 127 0
132.25966875071902 -13.148438 2.117648 0 127 0
132.25966875071902 -12.75 0.282352 0 127 0
132.25966875071902 -12.351563 1.631376 0 127 0
132.25966875071902 -11.953125 3.874512 0 127 0
132.25966875071902 -11.554688 2.729408 0 127 0
132.25966875071902 -11.15625 2.980392 0 127 0
132.25966875071902 -10.757813 1.4902 0 127 0
132.25966875071902 -10.359375 1.349016 0 127 0
132.25966875071902 -9.960938 4.282352 0 127 0
132.25966875071902 -9.5625 4.282352 0 127 0
132.25966875071902 -9.164063 1.756864 0 127 0
132.25966875071902 -8.765625 1.835296 0 127 0
132.25966875071902 -8.367188 0.768624 0 127 0
132.25966875071902 -7.96875 0.188232 0 127 0
132.25966875071902 -7.570313 1.411768 0 127 0
132.25966875071902 -7.171875 0.250984 0 127 0
132.25966875071902 -6.773438 0.658824 0 127 0
132.25966875071902 -6.375 0.09412 0 127 0
132.25966875071902 -5.976563 0 0 127 0
132.25966875071902 -5.578125 0 0 127 0
132.25966875071902 -5.179688 0 0 127 0
132.25966875071902 -4.78125 0 0 127 0
132.25966875071902 -4.382813 0.627448 0 127 0
132.25966875071902 -3.984375 0.611768 0 127 0
132.25966875071902 -3.585938 0.031376 0 127 0
132.25966875071902 -3.1875 0.282352 0 127 0
132.25966875071902 -2.789063 0.062744 0 127 0
132.25966875071902 -2.390625 0.282352 0 127 0
132.25966875071902 -1.992188 0 0 127 0
132.25966875071902 -1.59375 0.235296 0 127 0
132.25966875071902 -1.195313 0.09412 0 127 0
132.25966875071902 -0.796875 0.031376 0 127 0
132.25966875071902 -0.398438 0.752944 0 127 0
132.25966875071902 0 2.4 0 127 0
132.25966875071902 0.398437 1.317648 0 127 0
132.25966875071902 0.796875 3.79608 0 127 0
132.25966875071902 1.195312 0.062744 0 127 0
132.25966875071902 1.59375 4.423528 0 127 0
132.25966875071902 1.992187 4.40784 0 127 0
132.25966875071902 2.390625 3.60784 0 127 0
132.25966875071902 2.789062 0.250984 0 127 0
132.25966875071902 3.1875 0.611768 0 127 0
132.25966875071902 3.585937 0 0 127 0
132.25966875071902 3.984375 1.035296 0 127 0
132.25966875071902 4.382812 0.250984 0 127 0
132.25966875071902 4.78125 0.219608 0 127 0
132.25966875071902 5.179687 0.376472 0 127 0
132.25966875071902 5.578125 0.611768 0 127 0
132.25966875071902 5.976562 1.584312 0 127 0
132.25966875071902 6.375 4.329408 0 127 0
132.25966875071902 6.773437 0.454904 0 127 0
132.25966875071902 7.171875 0.956864 0 127 0
132.25966875071902 7.570312 0.8 0 127 0
132.25966875071902 7.96875 0.313728 0 127 0
132.25966875071902 8.367187 1.678432 0 127 0
132.25966875071902 8.765625 4.956864 0 127 0
132.25966875071902 9.164062 2.447056 0 127 0
132.25966875071902 9.5625 1.772552 0 127 0
132.25966875071902 9.960937 3.654904 0 127 0
132.25966875071902 10.359375 2.60392 0 127 0
132.25966875071902 10.757812 3.70196 0 127 0
132.25966875071902 11.15625 1.380392 0 127 0
132.25966875071902 11.554687 4.266664 0 127 0
132.25966875071902 11.953125 0.847056 0 127 0
132.25966875071902 12.351562 1.945096 0 127 0
132.25966875071902 12.75 1.39608 0 127 0
132.25966875071902 13.148437 0.454904 0 127 0
132.25966875071902 13.546875 1.662744 0 127 0
132.25966875071902 13.945312 0.784312 0 127 0
132.25966875071902 14.34375 0.815688 0 127 0
132.25966875071902 14.742187 6.070592 0 127 0
132.25966875071902 15.140625 6.039216 0 127 0
132.25966875071902 15.539062 7.529408 0 127 0
132.25966875071902 15.9375 3.8902 0 127 0
132.25966875071902 16.335937 6.729408 0 127 0
132.25966875071902 16.734375 5.756864 0 127 0
132.25966875071902 17.132812 3.3098 0 127 0
132.25966875071902 17.53125 5.270592 0 127 0
132.25966875071902 17.929687 2.2902 0 127 0
132.25966875071902 18.328125 0 0 127 0
132.25966875071902 18.726562 0 0 127 0
132.25966875071902 19.125 0.611768 0 127 0
132.25966875071902 19.523438 0.062744 0 127 0
132.25966875071902 19.921875 0 0 127 0
132.25966875071902 20.320313 0 0 127 0
132.25966875071902 20.71875 0 0 127 0
132.25966875071902 21.117188 0 0 127 0
132.25966875071902 21.515625 0 0 127 0
132.25966875071902 21.914063 0 0 127 0
132.25966875071902 22.3125 0 0 127 0
132.25966875071902 22.710938 0 0 127 0
132.25966875071902 23.109375 0 0 127 0
132.25966875071902 23.507813 0 0 127 0
132.25966875071902 23.90625 0 0 127 0
132.25966875071902 24.304688 0 0 127 0
132.25966875071902 24.703125 0 0 127 0
132.25966875071902 25.101563 0 0 127 0
132.25966875071902 25.5 0 0 127 0
132.25966875071902 25.898438 0 0 127 0
132.25966875071902 26.296875 0 0 127 0
132.25966875071902 26.695313 0 0 127 0
132.25966875071902 27.09375 0 0 127 0
132.25966875071902 27.492188 0 0 127 0
132.25966875071902 27.890625 0 0 127 0
132.25966875071902 28.289063 0 0 127 0
132.25966875071902 28.6875 0 0 127 0
132.25966875071902 29.085938 0 0 127 0
132.25966875071902 29.484375 0 0 127 0
132.25966875071902 29.882813 0 0 127 0
132.25966875071902 30.28125 0 0 127 0
132.25966875071902 30.679688 0 0 127 0
132.25966875071902 31.078125 0 0 127 0
132.25966875071902 31.476563 0 0 127 0
132.25966875071902 31.875 0 0 127 0
132.25966875071902 32.273438 0 0 127 0
132.25966875071902 32.671875 0 0 127 0
132.25966875071902 33.070313 0 0 127 0
132.25966875071902 33.46875 0 0 127 0
132.25966875071902 33.867188 0 0 127 0
132.25966875071902 34.265625 0 0 127 0
132.25966875071902 34.664063 0 0 127 0
132.25966875071902 35.0625 0 0 127 0
132.25966875071902 35.460938 0 0 127 0
132.25966875071902 35.859375 0 0 127 0
132.25966875071902 36.257813 0 0 127 0
132.25966875071902 36.65625 0 0 127 0
132.25966875071902 37.054688 0 0 127 0
132.25966875071902 37.453125 0 0 127 0
132.25966875071902 37.851563 0 0 127 0
132.25966875071902 38.25 0 0 127 0
132.25966875071902 38.648438 0 0 127 0
132.25966875071902 39.046875 0 0 127 0
132.25966875071902 39.445313 0 0 127 0
132.25966875071902 39.84375 0 0 127 0
132.25966875071902 40.242188 0 0 127 0
132.25966875071902 40.640625 0 0 127 0
132.25966875071902 41.039063 0 0 127 0
132.25966875071902 41.4375 0 0 127 0
132.25966875071902 41.835938 0 0 127 0
132.25966875071902 42.234375 0 0 127 0
132.25966875071902 42.632813 0 0 127 0
132.25966875071902 43.03125 0 0 127 0
132.25966875071902 43.429688 0 0 127 0
132.25966875071902 43.828125 0 0 127 0
132.25966875071902 44.226563 0 0 127 0
132.25966875071902 44.625 0 0 127 0
132.25966875071902 45.023438 0 0 127 0
132.25966875071902 45.421875 0 0 127 0
132.25966875071902 45.820313 0 0 127 0
132.25966875071902 46.21875 0 0 127 0
132.25966875071902 46.617188 0 0 127 0
132.25966875071902 47.015625 0 0 127 0
132.25966875071902 47.414063 0 0 127 0
132.25966875071902 47.8125 0 0 127 0
132.25966875071902 48.210938 0 0 127 0
132.25966875071902 48.609375 0 0 127 0
132.25966875071902 49.007813 0 0 127 0
132.25966875071902 49.40625 0 0 127 0
132.65810575071902 -49.40625 0 0 127 0
132.65810575071902 -49.007813 0 0 127 0
132.65810575071902 -48.609375 0 0 127 0
132.65810575071902 -48.210938 0 0 127 0
132.65810575071902 -47.8125 0 0 127 0
132.65810575071902 -47.414063 0 0 127 0
132.65810575071902 -47.015625 0 0 127 0
132.65810575071902 -46.617188 0 0 127 0
132.65810575071902 -46.21875 0 0 127 0
132.65810575071902 -45.820313 0 0 127 0
132.65810575071902 -45.421875 0 0 127 0
132.65810575071902 -45.023438 0 0 127 0
132.65810575071902 -44.625 0 0 127 0
132.65810575071902 -44.226563 0 0 127 0
132.65810575071902 -43.828125 0 0 127 0
132.65810575071902 -43.429688 0 0 127 0
132.65810575071902 -43.03125 0 0 127 0
132.65810575071902 -42.632813 0 0 127 0
132.65810575071902 -42.234375 0 0 127 0
132.65810575071902 -41.835938 0 0 127 0
132.65810575071902 -41.4375 0 0 127 0
132.65810575071902 -41.039063 0 0 127 0
132.65810575071902 -40.640625 0 0 127 0
132.65810575071902 -40.242188 0 0 127 0
132.65810575071902 -39.84375 0 0 127 0
132.65810575071902 -39.445313 0 0 127 0
132.65810575071902 -39.046875 0 0 127 0
132.65810575071902 -38.648438 0 0 127 0
132.65810575071902 -38.25 0 0 127 0
132.65810575071902 -37.851563 0 0 127 0
132.65810575071902 -37.453125 0 0 127 0
132.65810575071902 -37.054688 0 0 127 0
132.65810575071902 -36.65625 0 0 127 0
132.65810575071902 -36.257813 0 0 127 0
132.65810575071902 -35.859375 0 0 127 0
132.65810575071902 -35.460938 0 0 127 0
132.65810575071902 -35.0625 0 0 127 0
132.65810575071902 -34.664063 0 0 127 0
132.65810575071902 -34.265625 0 0 127 0
132.65810575071902 -33.867188 0 0 127 0
132.65810575071902 -33.46875 0 0 127 0
132.65810575071902 -33.070313 0 0 127 0
132.65810575071902 -32.671875 0 0 127 0
132.65810575071902 -32.273438 0 0 127 0
132.65810575071902 -31.875 0 0 127 0
132.65810575071902 -31.476563 0 0 127 0
132.65810575071902 -31.078125 0 0 127 0
132.65810575071902 -30.679688 0 0 127 0
132.65810575071902 -30.28125 0 0 127 0
132.65810575071902 -29.882813 0 0 127 0
132.65810575071902 -29.484375 0 0 127 0
132.65810575071902 -29.085938 0 0 127 0
132.65810575071902 -28.6875 0 0 127 0
132.65810575071902 -28.289063 0 0 127 0
132.65810575071902 -27.890625 0 0 127 0
132.65810575071902 -27.492188 0 0 127 0
132.65810575071902 -27.09375 0 0 127 0
132.65810575071902 -26.695313 0 0 127 0
132.65810575071902 -26.296875 0 0 127 0
132.65810575071902 -25.898438 0 0 127 0
132.65810575071902 -25.5 0 0 127 0
132.65810575071902 -25.101563 0 0 127 0
132.65810575071902 -24.703125 0 0 127 0
132.65810575071902 -24.304688 0 0 127 0
132.65810575071902 -23.90625 0 0 127 0
132.65810575071902 -23.507813 0 0 127 0
132.65810575071902 -23.109375 0 0 127 0
132.65810575071902 -22.710938 0 0 127 0
132.65810575071902 -22.3125 0 0 127 0
132.65810575071902 -21.914063 0 0 127 0
132.65810575071902 -21.515625 0 0 127 0
132.65810575071902 -21.117188 0 0 127 0
132.65810575071902 -20.71875 0 0 127 0
132.65810575071902 -20.320313 0 0 127 0
132.65810575071902 -19.921875 0 0 127 0
132.65810575071902 -19.523438 0.031376 0 127 0
132.65810575071902 -19.125 0.09412 0 127 0
132.65810575071902 -18.726563 0 0 127 0
132.65810575071902 -18.328125 0.250984 0 127 0
132.65810575071902 -17.929688 0.627448 0 127 0
132.65810575071902 -17.53125 0.062744 0 127 0
132.65810575071902 -17.132813 1.270592 0 127 0
132.65810575071902 -16.734375 7.0902 0 127 0
132.65810575071902 -16.335938 4.549016 0 127 0
132.65810575071902 -15.9375 6.964704 0 127 0
132.65810575071902 -15.539063 6.713728 0 127 0
132.65810575071902 -15.140625 3.450984 0 127 0
132.65810575071902 -14.742188 7.811768 0 127 0
132.65810575071902 -14.34375 2.243136 0 127 0
132.65810575071902 -13.945313 2.258824 0 127 0
132.65810575071902 -13.546875 0.156864 0 127 0
132.65810575071902 -13.148438 0.188232 0 127 0
132.65810575071902 -12.75 1.69412 0 127 0
132.65810575071902 -12.351563 4.250984 0 127 0
132.65810575071902 -11.953125 0.925488 0 127 0
132.65810575071902 -11.554688 3.529408 0 127 0
132.65810575071902 -11.15625 2.635296 0 127 0
132.65810575071902 -10.757813 4.062744 0 127 0
132.65810575071902 -10.359375 4.015688 0 127 0
132.65810575071902 -9.960938 5.09804 0 127 0
132.65810575071902 -9.5625 3.043136 0 127 0
132.65810575071902 -9.164063 2.19608 0 127 0
132.65810575071902 -8.765625 0.831376 0 127 0
132.65810575071902 -8.367188 1.80392 0 127 0
132.65810575071902 -7.96875 2.070592 0 127 0
132.65810575071902 -7.570313 0 0 127 0
132.65810575071902 -7.171875 0.831376 0 127 0
132.65810575071902 -6.773438 0.219608 0 127 0
132.65810575071902 -6.375 0.70588 0 127 0
132.65810575071902 -5.976563 0.156864 0 127 0
132.65810575071902 -5.578125 0.09412 0 127 0
132.65810575071902 -5.179688 0 0 127 0
132.65810575071902 -4.78125 0.062744 0 127 0
132.65810575071902 -4.382813 0 0 127 0
132.65810575071902 -3.984375 0.564704 0 127 0
132.65810575071902 -3.585938 0.219608 0 127 0
132.65810575071902 -3.1875 0 0 127 0
132.65810575071902 -2.789063 0 0 127 0
132.65810575071902 -2.390625 0.062744 0 127 0
132.65810575071902 -1.992188 0.282352 0 127 0
132.65810575071902 -1.59375 0.125488 0 127 0
132.65810575071902 -1.195313 0 0 127 0
132.65810575071902 -0.796875 0 0 127 0
132.65810575071902 -0.398438 1.082352 0 127 0
132.65810575071902 0 2.478432 0 127 0
132.65810575071902 0.398437 0.376472 0 127 0
132.65810575071902 0.796875 3.749016 0 127 0
132.65810575071902 1.195312 1.239216 0 127 0
132.65810575071902 1.59375 1.129408 0 127 0
132.65810575071902 1.992187 5.521568 0 127 0
132.65810575071902 2.390625 0.988232 0 127 0
132.65810575071902 2.789062 0.470592 0 127 0
132.65810575071902 3.1875 1.89804 0 127 0
132.65810575071902 3.585937 0 0 127 0
132.65810575071902 3.984375 0.70588 0 127 0
