ply
format ascii 1.0
comment File exported by Rhinoceros Version 8
element vertex 1105
property float x
property float y
property float z
property uchar red
property uchar green
property uchar blue
end_header
291.2814924488252 13.148437 0.156864 0 0 255
291.2814924488252 13.546875 0.549016 0 0 255
291.2814924488252 13.945312 0.078432 0 0 255
291.2814924488252 14.34375 0.925488 0 0 255
291.2814924488252 14.742187 0.815688 0 0 255
291.2814924488252 15.140625 0 0 0 255
291.2814924488252 15.539062 0.29804 0 0 255
291.2814924488252 15.9375 0.047056 0 0 255
291.2814924488252 16.335937 0.643136 0 0 255
291.2814924488252 16.734375 0.454904 0 0 255
291.2814924488252 17.132812 0.062744 0 0 255
291.2814924488252 17.53125 0.533336 0 0 255
291.2814924488252 17.929687 0 0 0 255
291.2814924488252 18.328125 0.188232 0 0 255
291.2814924488252 18.726562 0 0 0 255
291.2814924488252 19.125 0.062744 0 0 255
291.2814924488252 19.523438 0.345096 0 0 255
291.2814924488252 19.921875 0.156864 0 0 255
291.2814924488252 20.320313 0.470592 0 0 255
291.2814924488252 20.71875 0.423528 0 0 255
291.2814924488252 21.117188 1.00392 0 0 255
291.2814924488252 21.515625 0.031376 0 0 255
291.2814924488252 21.914063 0.486272 0 0 255
291.2814924488252 22.3125 0 0 0 255
291.2814924488252 22.710938 0.062744 0 0 255
291.2814924488252 23.109375 0.047056 0 0 255
291.2814924488252 23.507813 0 0 0 255
291.2814924488252 23.90625 0 0 0 255
291.2814924488252 24.304688 0.8 0 0 255
291.2814924488252 24.703125 0.09412 0 0 255
291.2814924488252 25.101563 0.172552 0 0 255
291.2814924488252 25.5 0.8 0 0 255
291.2814924488252 25.898438 0 0 0 255
291.2814924488252 26.296875 0 0 0 255
291.2814924488252 26.695313 0.20392 0 0 255
291.2814924488252 27.09375 0.250984 0 0 255
291.2814924488252 27.492188 0.062744 0 0 255
291.2814924488252 27.890625 0.062744 0 0 255
291.2814924488252 28.289063 0.047056 0 0 255
291.6799294488252 -27.890625 0.031376 0 0 255
291.6799294488252 -27.492188 0 0 0 255
291.6799294488252 -27.09375 0.188232 0 0 255
291.6799294488252 -26.695313 0.047056 0 0 255
291.6799294488252 -26.296875 0.517648 0 0 255
291.6799294488252 -25.898438 0.047056 0 0 255
291.6799294488252 -25.5 0.486272 0 0 255
291.6799294488252 -25.101563 0.047056 0 0 255
291.6799294488252 -24.703125 0.470592 0 0 255
291.6799294488252 -24.304688 0.376472 0 0 255
291.6799294488252 -23.90625 0.470592 0 0 255
291.6799294488252 -23.507813 0.156864 0 0 255
291.6799294488252 -23.109375 0 0 0 255
291.6799294488252 -22.710938 0 0 0 255
291.6799294488252 -22.3125 0.062744 0 0 255
291.6799294488252 -21.914063 0 0 0 255
291.6799294488252 -21.515625 0.486272 0 0 255
291.6799294488252 -21.117188 0.376472 0 0 255
291.6799294488252 -20.71875 0.015688 0 0 255
291.6799294488252 -20.320313 0.580392 0 0 255
291.6799294488252 -19.921875 0.1098 0 0 255
291.6799294488252 -19.523438 0 0 0 255
291.6799294488252 -19.125 0.062744 0 0 255
291.6799294488252 -18.726563 0.062744 0 0 255
291.6799294488252 -18.328125 0 0 0 255
291.6799294488252 -17.929688 0 0 0 255
291.6799294488252 -17.53125 1.09804 0 0 255
291.6799294488252 -17.132813 0.439216 0 0 255
291.6799294488252 -16.734375 0.031376 0 0 255
291.6799294488252 -16.335938 0.564704 0 0 255
291.6799294488252 -15.9375 0 0 0 255
291.6799294488252 -15.539063 0.784312 0 0 255
291.6799294488252 -15.140625 0.439216 0 0 255
291.6799294488252 -14.742188 0.40784 0 0 255
291.6799294488252 -14.34375 0 0 0 255
291.6799294488252 -13.945313 0.454904 0 0 255
291.6799294488252 -13.546875 0.282352 0 0 255
291.6799294488252 -13.148438 0.454904 0 0 255
291.6799294488252 -12.75 0.486272 0 0 255
291.6799294488252 -12.351563 0 0 0 255
291.6799294488252 -11.953125 0.047056 0 0 255
291.6799294488252 -11.554688 0.486272 0 0 255
291.6799294488252 -11.15625 0.047056 0 0 255
291.6799294488252 -10.757813 0.89412 0 0 255
291.6799294488252 -10.359375 0.737256 0 0 255
291.6799294488252 -9.960938 0.219608 0 0 255
291.6799294488252 -9.5625 0.062744 0 0 255
291.6799294488252 -9.164063 0 0 0 255
291.6799294488252 -8.765625 0 0 0 255
291.6799294488252 -8.367188 0.062744 0 0 255
291.6799294488252 -7.96875 0.486272 0 0 255
291.6799294488252 -7.570313 0.062744 0 0 255
291.6799294488252 -7.171875 0.015688 0 0 255
291.6799294488252 -6.773438 0.078432 0 0 255
291.6799294488252 -6.375 0.078432 0 0 255
291.6799294488252 -5.976563 0.486272 0 0 255
291.6799294488252 -5.578125 0.470592 0 0 255
291.6799294488252 -5.179688 0.062744 0 0 255
291.6799294488252 -4.78125 0.439216 0 0 255
291.6799294488252 -4.382813 0.549016 0 0 255
291.6799294488252 -3.984375 0.70588 0 0 255
291.6799294488252 -3.585938 0.6902 0 0 255
291.6799294488252 -3.1875 0 0 0 255
291.6799294488252 -2.789063 0.1098 0 0 255
291.6799294488252 -2.390625 0 0 0 255
291.6799294488252 -1.992188 0.376472 0 0 255
291.6799294488252 -1.59375 0 0 0 255
291.6799294488252 -1.195313 0.047056 0 0 255
291.6799294488252 -0.796875 0.486272 0 0 255
291.6799294488252 -0.398438 0.29804 0 0 255
291.6799294488252 0 1.380392 0 0 255
291.6799294488252 0.398437 0.047056 0 0 255
291.6799294488252 0.796875 0.454904 0 0 255
291.6799294488252 1.195312 0.768624 0 0 255
291.6799294488252 1.59375 0.737256 0 0 255
291.6799294488252 1.992187 0.141176 0 0 255
291.6799294488252 2.390625 0.470592 0 0 255
291.6799294488252 2.789062 0 0 0 255
291.6799294488252 3.1875 0.39216 0 0 255
291.6799294488252 3.585937 0.486272 0 0 255
291.6799294488252 3.984375 1.00392 0 0 255
291.6799294488252 4.382812 0 0 0 255
291.6799294488252 4.78125 0.031376 0 0 255
291.6799294488252 5.179687 0.39216 0 0 255
291.6799294488252 5.578125 0.9098 0 0 255
291.6799294488252 5.976562 0 0 0 255
291.6799294488252 6.375 0.156864 0 0 255
291.6799294488252 6.773437 0 0 0 255
291.6799294488252 7.171875 0 0 0 255
291.6799294488252 7.570312 0.031376 0 0 255
291.6799294488252 7.96875 0.141176 0 0 255
291.6799294488252 8.367187 0.329408 0 0 255
291.6799294488252 8.765625 0.470592 0 0 255
291.6799294488252 9.164062 0.40784 0 0 255
291.6799294488252 9.5625 0 0 0 255
291.6799294488252 9.960937 0.047056 0 0 255
291.6799294488252 10.359375 0.454904 0 0 255
291.6799294488252 10.757812 0.09412 0 0 255
291.6799294488252 11.15625 0.266664 0 0 255
291.6799294488252 11.554687 0.674512 0 0 255
291.6799294488252 11.953125 0.047056 0 0 255
291.6799294488252 12.351562 0.564704 0 0 255
291.6799294488252 12.75 0.486272 0 0 255
291.6799294488252 13.148437 0.486272 0 0 255
291.6799294488252 13.546875 0.062744 0 0 255
291.6799294488252 13.945312 0.20392 0 0 255
291.6799294488252 14.34375 0.470592 0 0 255
291.6799294488252 14.742187 0.172552 0 0 255
291.6799294488252 15.140625 0 0 0 255
291.6799294488252 15.539062 0.015688 0 0 255
291.6799294488252 15.9375 0.643136 0 0 255
291.6799294488252 16.335937 0.172552 0 0 255
291.6799294488252 16.734375 0.09412 0 0 255
291.6799294488252 17.132812 0 0 0 255
291.6799294488252 17.53125 0.486272 0 0 255
291.6799294488252 17.929687 0.768624 0 0 255
291.6799294488252 18.328125 0.125488 0 0 255
291.6799294488252 18.726562 0.031376 0 0 255
291.6799294488252 19.125 0.031376 0 0 255
291.6799294488252 19.523438 0 0 0 255
291.6799294488252 19.921875 0.29804 0 0 255
291.6799294488252 20.320313 0.1098 0 0 255
291.6799294488252 20.71875 0.062744 0 0 255
291.6799294488252 21.117188 0 0 0 255
291.6799294488252 21.515625 0.50196 0 0 255
291.6799294488252 21.914063 0 0 0 255
291.6799294488252 22.3125 0.454904 0 0 255
291.6799294488252 22.710938 0 0 0 255
291.6799294488252 23.109375 0.062744 0 0 255
291.6799294488252 23.507813 0.674512 0 0 255
291.6799294488252 23.90625 0 0 0 255
291.6799294488252 24.304688 0.643136 0 0 255
291.6799294488252 24.703125 0 0 0 255
291.6799294488252 25.101563 0.486272 0 0 255
291.6799294488252 25.5 0.533336 0 0 255
291.6799294488252 25.898438 0 0 0 255
291.6799294488252 26.296875 0 0 0 255
291.6799294488252 26.695313 0.486272 0 0 255
291.6799294488252 27.09375 0.752944 0 0 255
291.6799294488252 27.492188 0.470592 0 0 255
291.6799294488252 27.890625 0.454904 0 0 255
292.0783674488252 -27.09375 0.847056 0 0 255
292.0783674488252 -26.695313 0.156864 0 0 255
292.0783674488252 -26.296875 0.062744 0 0 255
292.0783674488252 -25.898438 0.015688 0 0 255
292.0783674488252 -25.5 0.031376 0 0 255
292.0783674488252 -25.101563 0.549016 0 0 255
292.0783674488252 -24.703125 0.50196 0 0 255
292.0783674488252 -24.304688 1.223528 0 0 255
292.0783674488252 -23.90625 0.047056 0 0 255
292.0783674488252 -23.507813 0.172552 0 0 255
292.0783674488252 -23.109375 0.39216 0 0 255
292.0783674488252 -22.710938 0 0 0 255
292.0783674488252 -22.3125 0 0 0 255
292.0783674488252 -21.914063 0.89412 0 0 255
292.0783674488252 -21.515625 0.486272 0 0 255
292.0783674488252 -21.117188 0.329408 0 0 255
292.0783674488252 -20.71875 0.250984 0 0 255
292.0783674488252 -20.320313 0.062744 0 0 255
292.0783674488252 -19.921875 0.078432 0 0 255
292.0783674488252 -19.523438 0.470592 0 0 255
292.0783674488252 -19.125 0.454904 0 0 255
292.0783674488252 -18.726563 0.125488 0 0 255
292.0783674488252 -18.328125 0.047056 0 0 255
292.0783674488252 -17.929688 0.454904 0 0 255
292.0783674488252 -17.53125 1.082352 0 0 255
292.0783674488252 -17.132813 0.282352 0 0 255
292.0783674488252 -16.734375 0.486272 0 0 255
292.0783674488252 -16.335938 0 0 0 255
292.0783674488252 -15.9375 0.486272 0 0 255
292.0783674488252 -15.539063 0.39216 0 0 255
292.0783674488252 -15.140625 0 0 0 255
292.0783674488252 -14.742188 0.376472 0 0 255
292.0783674488252 -14.34375 0.470592 0 0 255
292.0783674488252 -13.945313 0.470592 0 0 255
292.0783674488252 -13.546875 0.486272 0 0 255
292.0783674488252 -13.148438 0.345096 0 0 255
292.0783674488252 -12.75 0.580392 0 0 255
292.0783674488252 -12.351563 0 0 0 255
292.0783674488252 -11.953125 0.047056 0 0 255
292.0783674488252 -11.554688 0.313728 0 0 255
292.0783674488252 -11.15625 0.141176 0 0 255
292.0783674488252 -10.757813 0.062744 0 0 255
292.0783674488252 -10.359375 0.09412 0 0 255
292.0783674488252 -9.960938 0.188232 0 0 255
292.0783674488252 -9.5625 0.454904 0 0 255
292.0783674488252 -9.164063 0.439216 0 0 255
292.0783674488252 -8.765625 0.047056 0 0 255
292.0783674488252 -8.367188 0.047056 0 0 255
292.0783674488252 -7.96875 0.486272 0 0 255
292.0783674488252 -7.570313 0 0 0 255
292.0783674488252 -7.171875 0.062744 0 0 255
292.0783674488252 -6.773438 0.752944 0 0 255
292.0783674488252 -6.375 0.015688 0 0 255
292.0783674488252 -5.976563 0.470592 0 0 255
292.0783674488252 -5.578125 0.1098 0 0 255
292.0783674488252 -5.179688 0.40784 0 0 255
292.0783674488252 -4.78125 0.09412 0 0 255
292.0783674488252 -4.382813 0.062744 0 0 255
292.0783674488252 -3.984375 1.976472 0 0 255
292.0783674488252 -3.585938 0.1098 0 0 255
292.0783674488252 -3.1875 0 0 0 255
292.0783674488252 -2.789063 0.172552 0 0 255
292.0783674488252 -2.390625 0.047056 0 0 255
292.0783674488252 -1.992188 0.486272 0 0 255
292.0783674488252 -1.59375 0 0 0 255
292.0783674488252 -1.195313 0.219608 0 0 255
292.0783674488252 -0.796875 0.470592 0 0 255
292.0783674488252 -0.398438 0.29804 0 0 255
292.0783674488252 0 1.380392 0 0 255
292.0783674488252 0.398437 0 0 0 255
292.0783674488252 0.796875 0.439216 0 0 255
292.0783674488252 1.195312 0.8 0 0 255
292.0783674488252 1.59375 0.8 0 0 255
292.0783674488252 1.992187 0.078432 0 0 255
292.0783674488252 2.390625 0.50196 0 0 255
292.0783674488252 2.789062 0 0 0 255
292.0783674488252 3.1875 0.172552 0 0 255
292.0783674488252 3.585937 0.486272 0 0 255
292.0783674488252 3.984375 1.09804 0 0 255
292.0783674488252 4.382812 0 0 0 255
292.0783674488252 4.78125 0.580392 0 0 255
292.0783674488252 5.179687 0.486272 0 0 255
292.0783674488252 5.578125 0.658824 0 0 255
292.0783674488252 5.976562 0.015688 0 0 255
292.0783674488252 6.375 0.1098 0 0 255
292.0783674488252 6.773437 0 0 0 255
292.0783674488252 7.171875 0.031376 0 0 255
292.0783674488252 7.570312 0.031376 0 0 255
292.0783674488252 7.96875 0 0 0 255
292.0783674488252 8.367187 0.486272 0 0 255
292.0783674488252 8.765625 0.470592 0 0 255
292.0783674488252 9.164062 0.470592 0 0 255
292.0783674488252 9.5625 0.454904 0 0 255
292.0783674488252 9.960937 0.486272 0 0 255
292.0783674488252 10.359375 0.047056 0 0 255
292.0783674488252 10.757812 0.015688 0 0 255
292.0783674488252 11.15625 0.047056 0 0 255
292.0783674488252 11.554687 0.031376 0 0 255
292.0783674488252 11.953125 0.470592 0 0 255
292.0783674488252 12.351562 0.156864 0 0 255
292.0783674488252 12.75 0.047056 0 0 255
292.0783674488252 13.148437 0.517648 0 0 255
292.0783674488252 13.546875 0.015688 0 0 255
292.0783674488252 13.945312 0.031376 0 0 255
292.0783674488252 14.34375 0.486272 0 0 255
292.0783674488252 14.742187 0.062744 0 0 255
292.0783674488252 15.140625 0.345096 0 0 255
292.0783674488252 15.539062 0.50196 0 0 255
292.0783674488252 15.9375 0 0 0 255
292.0783674488252 16.335937 0.486272 0 0 255
292.0783674488252 16.734375 1.6 0 0 255
292.0783674488252 17.132812 0.470592 0 0 255
292.0783674488252 17.53125 0 0 0 255
292.0783674488252 17.929687 0.40784 0 0 255
292.0783674488252 18.328125 0.39216 0 0 255
292.0783674488252 18.726562 0.470592 0 0 255
292.0783674488252 19.125 0.09412 0 0 255
292.0783674488252 19.523438 0.031376 0 0 255
292.0783674488252 19.921875 0 0 0 255
292.0783674488252 20.320313 0.486272 0 0 255
292.0783674488252 20.71875 0.847056 0 0 255
292.0783674488252 21.117188 0 0 0 255
292.0783674488252 21.515625 1.035296 0 0 255
292.0783674488252 21.914063 0 0 0 255
292.0783674488252 22.3125 0.486272 0 0 255
292.0783674488252 22.710938 0.031376 0 0 255
292.0783674488252 23.109375 0.470592 0 0 255
292.0783674488252 23.507813 0.156864 0 0 255
292.0783674488252 23.90625 0.376472 0 0 255
292.0783674488252 24.304688 0.941176 0 0 255
292.0783674488252 24.703125 0.031376 0 0 255
292.0783674488252 25.101563 0.50196 0 0 255
292.0783674488252 25.5 0.470592 0 0 255
292.0783674488252 25.898438 0.031376 0 0 255
292.0783674488252 26.296875 0.831376 0 0 255
292.0783674488252 26.695313 0 0 0 255
292.0783674488252 27.09375 0.486272 0 0 255
292.4768044488252 -26.695313 0.062744 0 0 255
292.4768044488252 -26.296875 0 0 0 255
292.4768044488252 -25.898438 0.517648 0 0 255
292.4768044488252 -25.5 0.878432 0 0 255
292.4768044488252 -25.101563 0.266664 0 0 255
292.4768044488252 -24.703125 0.439216 0 0 255
292.4768044488252 -24.304688 0.486272 0 0 255
292.4768044488252 -23.90625 0 0 0 255
292.4768044488252 -23.507813 0.047056 0 0 255
292.4768044488252 -23.109375 0.360784 0 0 255
292.4768044488252 -22.710938 0.015688 0 0 255
292.4768044488252 -22.3125 0.015688 0 0 255
292.4768044488252 -21.914063 0.470592 0 0 255
292.4768044488252 -21.515625 0.313728 0 0 255
292.4768044488252 -21.117188 0.015688 0 0 255
292.4768044488252 -20.71875 0.39216 0 0 255
292.4768044488252 -20.320313 0.658824 0 0 255
292.4768044488252 -19.921875 0.078432 0 0 255
292.4768044488252 -19.523438 0.486272 0 0 255
292.4768044488252 -19.125 0 0 0 255
292.4768044488252 -18.726563 0.282352 0 0 255
292.4768044488252 -18.328125 0 0 0 255
292.4768044488252 -17.929688 1.160784 0 0 255
292.4768044488252 -17.53125 0.047056 0 0 255
292.4768044488252 -17.132813 0.047056 0 0 255
292.4768044488252 -16.734375 0.454904 0 0 255
292.4768044488252 -16.335938 0.439216 0 0 255
292.4768044488252 -15.9375 0 0 0 255
292.4768044488252 -15.539063 0 0 0 255
292.4768044488252 -15.140625 0.360784 0 0 255
292.4768044488252 -14.742188 0.062744 0 0 255
292.4768044488252 -14.34375 0.345096 0 0 255
292.4768044488252 -13.945313 0.486272 0 0 255
292.4768044488252 -13.546875 0.20392 0 0 255
292.4768044488252 -13.148438 0 0 0 255
292.4768044488252 -12.75 0.454904 0 0 255
292.4768044488252 -12.351563 0.89412 0 0 255
292.4768044488252 -11.953125 0.031376 0 0 255
292.4768044488252 -11.554688 0 0 0 255
292.4768044488252 -11.15625 0.564704 0 0 255
292.4768044488252 -10.757813 0.047056 0 0 255
292.4768044488252 -10.359375 0.470592 0 0 255
292.4768044488252 -9.960938 1.647056 0 0 255
292.4768044488252 -9.5625 0.549016 0 0 255
292.4768044488252 -9.164063 0.219608 0 0 255
292.4768044488252 -8.765625 0.439216 0 0 255
292.4768044488252 -8.367188 0.956864 0 0 255
292.4768044488252 -7.96875 0.1098 0 0 255
292.4768044488252 -7.570313 0.062744 0 0 255
292.4768044488252 -7.171875 0.643136 0 0 255
292.4768044488252 -6.773438 0.611768 0 0 255
292.4768044488252 -6.375 0.282352 0 0 255
292.4768044488252 -5.976563 0.20392 0 0 255
292.4768044488252 -5.578125 0.235296 0 0 255
292.4768044488252 -5.179688 0.470592 0 0 255
292.4768044488252 -4.78125 0.20392 0 0 255
292.4768044488252 -4.382813 0.015688 0 0 255
292.4768044488252 -3.984375 1.443136 0 0 255
292.4768044488252 -3.585938 0.047056 0 0 255
292.4768044488252 -3.1875 0 0 0 255
292.4768044488252 -2.789063 0.564704 0 0 255
292.4768044488252 -2.390625 0.219608 0 0 255
292.4768044488252 -1.992188 0.172552 0 0 255
292.4768044488252 -1.59375 0 0 0 255
292.4768044488252 -1.195313 0.313728 0 0 255
292.4768044488252 -0.796875 0.486272 0 0 255
292.4768044488252 -0.398438 0.376472 0 0 255
292.4768044488252 0 1.380392 0 0 255
292.4768044488252 0.398437 0 0 0 255
292.4768044488252 0.796875 0.439216 0 0 255
292.4768044488252 1.195312 0.8 0 0 255
292.4768044488252 1.59375 0.768624 0 0 255
292.4768044488252 1.992187 0.1098 0 0 255
292.4768044488252 2.390625 0.470592 0 0 255
292.4768044488252 2.789062 0 0 0 255
292.4768044488252 3.1875 0.062744 0 0 255
292.4768044488252 3.585937 0.454904 0 0 255
292.4768044488252 3.984375 1.254904 0 0 255
292.4768044488252 4.382812 0 0 0 255
292.4768044488252 4.78125 1.725488 0 0 255
292.4768044488252 5.179687 0.470592 0 0 255
292.4768044488252 5.578125 0 0 0 255
292.4768044488252 5.976562 0.09412 0 0 255
292.4768044488252 6.375 0.439216 0 0 255
292.4768044488252 6.773437 0.047056 0 0 255
292.4768044488252 7.171875 0.047056 0 0 255
292.4768044488252 7.570312 0.580392 0 0 255
292.4768044488252 7.96875 0.721568 0 0 255
292.4768044488252 8.367187 0.345096 0 0 255
292.4768044488252 8.765625 0.470592 0 0 255
292.4768044488252 9.164062 0 0 0 255
292.4768044488252 9.5625 0.486272 0 0 255
292.4768044488252 9.960937 0.59608 0 0 255
292.4768044488252 10.359375 0 0 0 255
292.4768044488252 10.757812 0 0 0 255
292.4768044488252 11.15625 1.176472 0 0 255
292.4768044488252 11.554687 0.847056 0 0 255
292.4768044488252 11.953125 0.172552 0 0 255
292.4768044488252 12.351562 0.517648 0 0 255
292.4768044488252 12.75 0.658824 0 0 255
292.4768044488252 13.148437 0.423528 0 0 255
292.4768044488252 13.546875 0.015688 0 0 255
292.4768044488252 13.945312 0.549016 0 0 255
292.4768044488252 14.34375 0.062744 0 0 255
292.4768044488252 14.742187 0.282352 0 0 255
292.4768044488252 15.140625 0 0 0 255
292.4768044488252 15.539062 0.015688 0 0 255
292.4768044488252 15.9375 0.956864 0 0 255
292.4768044488252 16.335937 1.035296 0 0 255
292.4768044488252 16.734375 0 0 0 255
292.4768044488252 17.132812 0.862744 0 0 255
292.4768044488252 17.53125 0 0 0 255
292.4768044488252 17.929687 0.674512 0 0 255
292.4768044488252 18.328125 0.517648 0 0 255
292.4768044488252 18.726562 0.454904 0 0 255
292.4768044488252 19.125 0.470592 0 0 255
292.4768044488252 19.523438 0.062744 0 0 255
292.4768044488252 19.921875 0.313728 0 0 255
292.4768044488252 20.320313 0.047056 0 0 255
292.4768044488252 20.71875 0.047056 0 0 255
292.4768044488252 21.117188 0.062744 0 0 255
292.4768044488252 21.515625 0 0 0 255
292.4768044488252 21.914063 0.486272 0 0 255
292.4768044488252 22.3125 0 0 0 255
292.4768044488252 22.710938 0.047056 0 0 255
292.4768044488252 23.109375 0.533336 0 0 255
292.4768044488252 23.507813 0.376472 0 0 255
292.4768044488252 23.90625 0.29804 0 0 255
292.4768044488252 24.304688 0 0 0 255
292.4768044488252 24.703125 0.031376 0 0 255
292.4768044488252 25.101563 0.172552 0 0 255
292.4768044488252 25.5 0.29804 0 0 255
292.4768044488252 25.898438 0.047056 0 0 255
292.4768044488252 26.296875 0.470592 0 0 255
292.4768044488252 26.695313 0.40784 0 0 255
292.8752424488252 -25.898438 0.031376 0 0 255
292.8752424488252 -25.5 0.988232 0 0 255
292.8752424488252 -25.101563 0.047056 0 0 255
292.8752424488252 -24.703125 0.9098 0 0 255
292.8752424488252 -24.304688 0 0 0 255
292.8752424488252 -23.90625 0.062744 0 0 255
292.8752424488252 -23.507813 0.486272 0 0 255
292.8752424488252 -23.109375 0.047056 0 0 255
292.8752424488252 -22.710938 0 0 0 255
292.8752424488252 -22.3125 0.20392 0 0 255
292.8752424488252 -21.914063 0.20392 0 0 255
292.8752424488252 -21.515625 0.266664 0 0 255
292.8752424488252 -21.117188 0.329408 0 0 255
292.8752424488252 -20.71875 0.062744 0 0 255
292.8752424488252 -20.320313 0.20392 0 0 255
292.8752424488252 -19.921875 0.470592 0 0 255
292.8752424488252 -19.523438 0.439216 0 0 255
292.8752424488252 -19.125 0 0 0 255
292.8752424488252 -18.726563 0 0 0 255
292.8752424488252 -18.328125 0.486272 0 0 255
292.8752424488252 -17.929688 0.70588 0 0 255
292.8752424488252 -17.53125 0.062744 0 0 255
292.8752424488252 -17.132813 0.470592 0 0 255
292.8752424488252 -16.734375 0.329408 0 0 255
292.8752424488252 -16.335938 0 0 0 255
292.8752424488252 -15.9375 0 0 0 255
292.8752424488252 -15.539063 0.329408 0 0 255
292.8752424488252 -15.140625 0.50196 0 0 255
292.8752424488252 -14.742188 0.062744 0 0 255
292.8752424488252 -14.34375 0.470592 0 0 255
292.8752424488252 -13.945313 0.470592 0 0 255
292.8752424488252 -13.546875 0.517648 0 0 255
292.8752424488252 -13.148438 0.219608 0 0 255
292.8752424488252 -12.75 0 0 0 255
292.8752424488252 -12.351563 0.078432 0 0 255
292.8752424488252 -11.953125 0.768624 0 0 255
292.8752424488252 -11.554688 0 0 0 255
292.8752424488252 -11.15625 0.423528 0 0 255
292.8752424488252 -10.757813 0.219608 0 0 255
292.8752424488252 -10.359375 0.062744 0 0 255
292.8752424488252 -9.960938 0.09412 0 0 255
292.8752424488252 -9.5625 0.768624 0 0 255
292.8752424488252 -9.164063 0.784312 0 0 255
292.8752424488252 -8.765625 0.09412 0 0 255
292.8752424488252 -8.367188 0.031376 0 0 255
292.8752424488252 -7.96875 0 0 0 255
292.8752424488252 -7.570313 0.360784 0 0 255
292.8752424488252 -7.171875 0.549016 0 0 255
292.8752424488252 -6.773438 0 0 0 255
292.8752424488252 -6.375 0.047056 0 0 255
292.8752424488252 -5.976563 0.031376 0 0 255
292.8752424488252 -5.578125 0.454904 0 0 255
292.8752424488252 -5.179688 0.50196 0 0 255
292.8752424488252 -4.78125 0.470592 0 0 255
292.8752424488252 -4.382813 0.015688 0 0 255
292.8752424488252 -3.984375 0.09412 0 0 255
292.8752424488252 -3.585938 0 0 0 255
292.8752424488252 -3.1875 0 0 0 255
292.8752424488252 -2.789063 1.474512 0 0 255
292.8752424488252 -2.390625 0.423528 0 0 255
292.8752424488252 -1.992188 0.09412 0 0 255
292.8752424488252 -1.59375 0 0 0 255
292.8752424488252 -1.195313 0.345096 0 0 255
292.8752424488252 -0.796875 0.486272 0 0 255
292.8752424488252 -0.398438 0.376472 0 0 255
292.8752424488252 0 1.380392 0 0 255
292.8752424488252 0.398437 0 0 0 255
292.8752424488252 0.796875 0.360784 0 0 255
292.8752424488252 1.195312 0.611768 0 0 255
292.8752424488252 1.59375 0.737256 0 0 255
292.8752424488252 1.992187 0.156864 0 0 255
292.8752424488252 2.390625 0.360784 0 0 255
292.8752424488252 2.789062 0 0 0 255
292.8752424488252 3.1875 0.031376 0 0 255
292.8752424488252 3.585937 0.643136 0 0 255
292.8752424488252 3.984375 0.721568 0 0 255
292.8752424488252 4.382812 0.282352 0 0 255
292.8752424488252 4.78125 0.815688 0 0 255
292.8752424488252 5.179687 0.156864 0 0 255
292.8752424488252 5.578125 0.486272 0 0 255
292.8752424488252 5.976562 0.20392 0 0 255
292.8752424488252 6.375 0 0 0 255
292.8752424488252 6.773437 0.486272 0 0 255
292.8752424488252 7.171875 0.439216 0 0 255
292.8752424488252 7.570312 0.784312 0 0 255
292.8752424488252 7.96875 0.8 0 0 255
292.8752424488252 8.367187 0.031376 0 0 255
292.8752424488252 8.765625 0.470592 0 0 255
292.8752424488252 9.164062 0.517648 0 0 255
292.8752424488252 9.5625 0.09412 0 0 255
292.8752424488252 9.960937 0.611768 0 0 255
292.8752424488252 10.359375 0.062744 0 0 255
292.8752424488252 10.757812 0.847056 0 0 255
292.8752424488252 11.15625 0.878432 0 0 255
292.8752424488252 11.554687 0.721568 0 0 255
292.8752424488252 11.953125 0.517648 0 0 255
292.8752424488252 12.351562 0.031376 0 0 255
292.8752424488252 12.75 0.40784 0 0 255
292.8752424488252 13.148437 0.486272 0 0 255
292.8752424488252 13.546875 0.643136 0 0 255
292.8752424488252 13.945312 0 0 0 255
292.8752424488252 14.34375 0.627448 0 0 255
292.8752424488252 14.742187 0 0 0 255
292.8752424488252 15.140625 0.282352 0 0 255
292.8752424488252 15.539062 0.486272 0 0 255
292.8752424488252 15.9375 0.015688 0 0 255
292.8752424488252 16.335937 0.439216 0 0 255
292.8752424488252 16.734375 0 0 0 255
292.8752424488252 17.132812 0.423528 0 0 255
292.8752424488252 17.53125 0.156864 0 0 255
292.8752424488252 17.929687 0.470592 0 0 255
292.8752424488252 18.328125 0 0 0 255
292.8752424488252 18.726562 0.831376 0 0 255
292.8752424488252 19.125 0 0 0 255
292.8752424488252 19.523438 0.360784 0 0 255
292.8752424488252 19.921875 0 0 0 255
292.8752424488252 20.320313 0 0 0 255
292.8752424488252 20.71875 0.486272 0 0 255
292.8752424488252 21.117188 0.674512 0 0 255
292.8752424488252 21.515625 0.031376 0 0 255
292.8752424488252 21.914063 0.062744 0 0 255
292.8752424488252 22.3125 0 0 0 255
292.8752424488252 22.710938 0.062744 0 0 255
292.8752424488252 23.109375 0.423528 0 0 255
292.8752424488252 23.507813 0.235296 0 0 255
292.8752424488252 23.90625 0.956864 0 0 255
292.8752424488252 24.304688 1.00392 0 0 255
292.8752424488252 24.703125 0.768624 0 0 255
292.8752424488252 25.101563 0.266664 0 0 255
292.8752424488252 25.5 0.078432 0 0 255
292.8752424488252 25.898438 1.00392 0 0 255
293.2736794488252 -25.101563 0.486272 0 0 255
293.2736794488252 -24.703125 0.062744 0 0 255
293.2736794488252 -24.304688 0.313728 0 0 255
293.2736794488252 -23.90625 0.078432 0 0 255
293.2736794488252 -23.507813 0.486272 0 0 255
293.2736794488252 -23.109375 0 0 0 255
293.2736794488252 -22.710938 0.345096 0 0 255
293.2736794488252 -22.3125 0.470592 0 0 255
293.2736794488252 -21.914063 0.235296 0 0 255
293.2736794488252 -21.515625 0.345096 0 0 255
293.2736794488252 -21.117188 0.345096 0 0 255
293.2736794488252 -20.71875 0.768624 0 0 255
293.2736794488252 -20.320313 0.329408 0 0 255
293.2736794488252 -19.921875 0.486272 0 0 255
293.2736794488252 -19.523438 0 0 0 255
293.2736794488252 -19.125 0.40784 0 0 255
293.2736794488252 -18.726563 0 0 0 255
293.2736794488252 -18.328125 0 0 0 255
293.2736794488252 -17.929688 0.062744 0 0 255
293.2736794488252 -17.53125 0.313728 0 0 255
293.2736794488252 -17.132813 0.031376 0 0 255
293.2736794488252 -16.734375 0.486272 0 0 255
293.2736794488252 -16.335938 0.266664 0 0 255
293.2736794488252 -15.9375 0.047056 0 0 255
293.2736794488252 -15.539063 0.062744 0 0 255
293.2736794488252 -15.140625 0.29804 0 0 255
293.2736794488252 -14.742188 0.862744 0 0 255
293.2736794488252 -14.34375 0.062744 0 0 255
293.2736794488252 -13.945313 0.470592 0 0 255
293.2736794488252 -13.546875 0.015688 0 0 255
293.2736794488252 -13.148438 0.062744 0 0 255
293.2736794488252 -12.75 0.188232 0 0 255
293.2736794488252 -12.351563 0.517648 0 0 255
293.2736794488252 -11.953125 0.9098 0 0 255
293.2736794488252 -11.554688 0.1098 0 0 255
293.2736794488252 -11.15625 0.831376 0 0 255
293.2736794488252 -10.757813 0.658824 0 0 255
293.2736794488252 -10.359375 0.031376 0 0 255
293.2736794488252 -9.960938 0 0 0 255
293.2736794488252 -9.5625 0.141176 0 0 255
293.2736794488252 -9.164063 0.313728 0 0 255
293.2736794488252 -8.765625 0.486272 0 0 255
293.2736794488252 -8.367188 0.50196 0 0 255
293.2736794488252 -7.96875 0.376472 0 0 255
293.2736794488252 -7.570313 0.313728 0 0 255
293.2736794488252 -7.171875 0.09412 0 0 255
293.2736794488252 -6.773438 0.047056 0 0 255
293.2736794488252 -6.375 0 0 0 255
293.2736794488252 -5.976563 0.423528 0 0 255
293.2736794488252 -5.578125 0 0 0 255
293.2736794488252 -5.179688 0.235296 0 0 255
293.2736794488252 -4.78125 0.235296 0 0 255
293.2736794488252 -4.382813 0 0 0 255
293.2736794488252 -3.984375 0.031376 0 0 255
293.2736794488252 -3.585938 0 0 0 255
293.2736794488252 -3.1875 0.062744 0 0 255
293.2736794488252 -2.789063 0.439216 0 0 255
293.2736794488252 -2.390625 0.486272 0 0 255
293.2736794488252 -1.992188 0.470592 0 0 255
293.2736794488252 -1.59375 0.486272 0 0 255
293.2736794488252 -1.195313 0.156864 0 0 255
293.2736794488252 -0.796875 0.376472 0 0 255
293.2736794488252 -0.398438 0.470592 0 0 255
293.2736794488252 0 1.380392 0 0 255
293.2736794488252 0.398437 0.313728 0 0 255
293.2736794488252 0.796875 0.878432 0 0 255
293.2736794488252 1.195312 0.40784 0 0 255
293.2736794488252 1.59375 0.580392 0 0 255
293.2736794488252 1.992187 0.015688 0 0 255
293.2736794488252 2.390625 0.250984 0 0 255
293.2736794488252 2.789062 1.082352 0 0 255
293.2736794488252 3.1875 0.078432 0 0 255
293.2736794488252 3.585937 1.145096 0 0 255
293.2736794488252 3.984375 0.047056 0 0 255
293.2736794488252 4.382812 0.062744 0 0 255
293.2736794488252 4.78125 0.078432 0 0 255
293.2736794488252 5.179687 0.09412 0 0 255
293.2736794488252 5.578125 0.376472 0 0 255
293.2736794488252 5.976562 0 0 0 255
293.2736794488252 6.375 0.015688 0 0 255
293.2736794488252 6.773437 0.486272 0 0 255
293.2736794488252 7.171875 0 0 0 255
293.2736794488252 7.570312 0.454904 0 0 255
293.2736794488252 7.96875 0.486272 0 0 255
293.2736794488252 8.367187 0.031376 0 0 255
293.2736794488252 8.765625 0.047056 0 0 255
293.2736794488252 9.164062 0.988232 0 0 255
293.2736794488252 9.5625 0.517648 0 0 255
293.2736794488252 9.960937 0.047056 0 0 255
293.2736794488252 10.359375 0 0 0 255
293.2736794488252 10.757812 0.062744 0 0 255
293.2736794488252 11.15625 0.062744 0 0 255
293.2736794488252 11.554687 0.015688 0 0 255
293.2736794488252 11.953125 0.047056 0 0 255
293.2736794488252 12.351562 0.125488 0 0 255
293.2736794488252 12.75 1.035296 0 0 255
293.2736794488252 13.148437 0.188232 0 0 255
293.2736794488252 13.546875 0.831376 0 0 255
293.2736794488252 13.945312 0.266664 0 0 255
293.2736794488252 14.34375 0.486272 0 0 255
293.2736794488252 14.742187 0.047056 0 0 255
293.2736794488252 15.140625 0.439216 0 0 255
293.2736794488252 15.539062 0.1098 0 0 255
293.2736794488252 15.9375 0.345096 0 0 255
293.2736794488252 16.335937 0 0 0 255
293.2736794488252 16.734375 0.486272 0 0 255
293.2736794488252 17.132812 0.188232 0 0 255
293.2736794488252 17.53125 0.062744 0 0 255
293.2736794488252 17.929687 0 0 0 255
293.2736794488252 18.328125 0 0 0 255
293.2736794488252 18.726562 0.047056 0 0 255
293.2736794488252 19.125 0.219608 0 0 255
293.2736794488252 19.523438 0.125488 0 0 255
293.2736794488252 19.921875 0.062744 0 0 255
293.2736794488252 20.320313 0.89412 0 0 255
293.2736794488252 20.71875 0.29804 0 0 255
293.2736794488252 21.117188 0 0 0 255
293.2736794488252 21.515625 0 0 0 255
293.2736794488252 21.914063 0.50196 0 0 255
293.2736794488252 22.3125 0 0 0 255
293.2736794488252 22.710938 0.015688 0 0 255
293.2736794488252 23.109375 0.235296 0 0 255
293.2736794488252 23.507813 0.815688 0 0 255
293.2736794488252 23.90625 0.062744 0 0 255
293.2736794488252 24.304688 0.031376 0 0 255
293.2736794488252 24.703125 0 0 0 255
293.2736794488252 25.101563 0.329408 0 0 255
293.6721174488252 -24.703125 0.078432 0 0 255
293.6721174488252 -24.304688 0.235296 0 0 255
293.6721174488252 -23.90625 0.062744 0 0 255
293.6721174488252 -23.507813 0.470592 0 0 255
293.6721174488252 -23.109375 0.047056 0 0 255
293.6721174488252 -22.710938 0.078432 0 0 255
293.6721174488252 -22.3125 0.313728 0 0 255
293.6721174488252 -21.914063 0.062744 0 0 255
293.6721174488252 -21.515625 0.360784 0 0 255
293.6721174488252 -21.117188 0.141176 0 0 255
293.6721174488252 -20.71875 0.39216 0 0 255
293.6721174488252 -20.320313 0.09412 0 0 255
293.6721174488252 -19.921875 0.156864 0 0 255
293.6721174488252 -19.523438 0.015688 0 0 255
293.6721174488252 -19.125 0 0 0 255
293.6721174488252 -18.726563 0.486272 0 0 255
293.6721174488252 -18.328125 0.831376 0 0 255
293.6721174488252 -17.929688 0.89412 0 0 255
293.6721174488252 -17.53125 0 0 0 255
293.6721174488252 -17.132813 1.066664 0 0 255
293.6721174488252 -16.734375 0 0 0 255
293.6721174488252 -16.335938 0 0 0 255
293.6721174488252 -15.9375 0.282352 0 0 255
293.6721174488252 -15.539063 0.831376 0 0 255
293.6721174488252 -15.140625 0.062744 0 0 255
293.6721174488252 -14.742188 0.250984 0 0 255
293.6721174488252 -14.34375 0.470592 0 0 255
293.6721174488252 -13.945313 0.141176 0 0 255
293.6721174488252 -13.546875 0 0 0 255
293.6721174488252 -13.148438 0.235296 0 0 255
293.6721174488252 -12.75 0.078432 0 0 255
293.6721174488252 -12.351563 0 0 0 255
293.6721174488252 -11.953125 0.125488 0 0 255
293.6721174488252 -11.554688 0.329408 0 0 255
293.6721174488252 -11.15625 0.062744 0 0 255
293.6721174488252 -10.757813 0.39216 0 0 255
293.6721174488252 -10.359375 0.70588 0 0 255
293.6721174488252 -9.960938 0.862744 0 0 255
293.6721174488252 -9.5625 0.972552 0 0 255
293.6721174488252 -9.164063 0.156864 0 0 255
293.6721174488252 -8.765625 0.517648 0 0 255
293.6721174488252 -8.367188 0.015688 0 0 255
293.6721174488252 -7.96875 0.313728 0 0 255
293.6721174488252 -7.570313 0.047056 0 0 255
293.6721174488252 -7.171875 0.470592 0 0 255
293.6721174488252 -6.773438 0.454904 0 0 255
293.6721174488252 -6.375 0.39216 0 0 255
293.6721174488252 -5.976563 0.188232 0 0 255
293.6721174488252 -5.578125 0 0 0 255
293.6721174488252 -5.179688 0.047056 0 0 255
293.6721174488252 -4.78125 0.50196 0 0 255
293.6721174488252 -4.382813 0 0 0 255
293.6721174488252 -3.984375 0 0 0 255
293.6721174488252 -3.585938 0 0 0 255
293.6721174488252 -3.1875 0.062744 0 0 255
293.6721174488252 -2.789063 0.329408 0 0 255
293.6721174488252 -2.390625 0.486272 0 0 255
293.6721174488252 -1.992188 0.470592 0 0 255
293.6721174488252 -1.59375 0.486272 0 0 255
293.6721174488252 -1.195313 0 0 0 255
293.6721174488252 -0.796875 0.062744 0 0 255
293.6721174488252 -0.398438 0.470592 0 0 255
293.6721174488252 0 1.333336 0 0 255
293.6721174488252 0.398437 0.313728 0 0 255
293.6721174488252 0.796875 0.768624 0 0 255
293.6721174488252 1.195312 0.784312 0 0 255
293.6721174488252 1.59375 1.066664 0 0 255
293.6721174488252 1.992187 0 0 0 255
293.6721174488252 2.390625 0.454904 0 0 255
293.6721174488252 2.789062 1.254904 0 0 255
293.6721174488252 3.1875 0 0 0 255
293.6721174488252 3.585937 0.956864 0 0 255
293.6721174488252 3.984375 0.062744 0 0 255
293.6721174488252 4.382812 0.329408 0 0 255
293.6721174488252 4.78125 0.360784 0 0 255
293.6721174488252 5.179687 0.439216 0 0 255
293.6721174488252 5.578125 0.062744 0 0 255
293.6721174488252 5.976562 0.031376 0 0 255
293.6721174488252 6.375 0.047056 0 0 255
293.6721174488252 6.773437 0.486272 0 0 255
293.6721174488252 7.171875 0 0 0 255
293.6721174488252 7.570312 0.047056 0 0 255
293.6721174488252 7.96875 0.486272 0 0 255
293.6721174488252 8.367187 0.40784 0 0 255
293.6721174488252 8.765625 0 0 0 255
293.6721174488252 9.164062 0.470592 0 0 255
293.6721174488252 9.5625 0.862744 0 0 255
293.6721174488252 9.960937 0.047056 0 0 255
293.6721174488252 10.359375 0.454904 0 0 255
293.6721174488252 10.757812 0.564704 0 0 255
293.6721174488252 11.15625 0 0 0 255
293.6721174488252 11.554687 0.078432 0 0 255
293.6721174488252 11.953125 0.313728 0 0 255
293.6721174488252 12.351562 0.941176 0 0 255
293.6721174488252 12.75 0 0 0 255
293.6721174488252 13.148437 0.062744 0 0 255
293.6721174488252 13.546875 0.141176 0 0 255
293.6721174488252 13.945312 0.062744 0 0 255
293.6721174488252 14.34375 0.188232 0 0 255
293.6721174488252 14.742187 0.062744 0 0 255
293.6721174488252 15.140625 0.439216 0 0 255
293.6721174488252 15.539062 0.188232 0 0 255
293.6721174488252 15.9375 0.062744 0 0 255
293.6721174488252 16.335937 0 0 0 255
293.6721174488252 16.734375 0.062744 0 0 255
293.6721174488252 17.132812 0 0 0 255
293.6721174488252 17.53125 0.062744 0 0 255
293.6721174488252 17.929687 0 0 0 255
293.6721174488252 18.328125 0.470592 0 0 255
293.6721174488252 18.726562 0.015688 0 0 255
293.6721174488252 19.125 0.517648 0 0 255
293.6721174488252 19.523438 0.078432 0 0 255
293.6721174488252 19.921875 0.50196 0 0 255
293.6721174488252 20.320313 0.062744 0 0 255
293.6721174488252 20.71875 0 0 0 255
293.6721174488252 21.117188 0 0 0 255
293.6721174488252 21.515625 0.470592 0 0 255
293.6721174488252 21.914063 0.50196 0 0 255
293.6721174488252 22.3125 0.062744 0 0 255
293.6721174488252 22.710938 0 0 0 255
293.6721174488252 23.109375 0.062744 0 0 255
293.6721174488252 23.507813 0.768624 0 0 255
293.6721174488252 23.90625 0 0 0 255
293.6721174488252 24.304688 0 0 0 255
293.6721174488252 24.703125 0.862744 0 0 255
294.0705544488252 -23.90625 1.050984 0 0 255
294.0705544488252 -23.507813 0.486272 0 0 255
294.0705544488252 -23.109375 0.972552 0 0 255
294.0705544488252 -22.710938 0.470592 0 0 255
294.0705544488252 -22.3125 0.282352 0 0 255
294.0705544488252 -21.914063 0.329408 0 0 255
294.0705544488252 -21.515625 0.40784 0 0 255
294.0705544488252 -21.117188 0.768624 0 0 255
294.0705544488252 -20.71875 0.015688 0 0 255
294.0705544488252 -20.320313 0.423528 0 0 255
294.0705544488252 -19.921875 0.047056 0 0 255
294.0705544488252 -19.523438 0.062744 0 0 255
294.0705544488252 -19.125 1.09804 0 0 255
294.0705544488252 -18.726563 0.266664 0 0 255
294.0705544488252 -18.328125 0.188232 0 0 255
294.0705544488252 -17.929688 0.047056 0 0 255
294.0705544488252 -17.53125 0.862744 0 0 255
294.0705544488252 -17.132813 0 0 0 255
294.0705544488252 -16.734375 0.345096 0 0 255
294.0705544488252 -16.335938 0.486272 0 0 255
294.0705544488252 -15.9375 0.031376 0 0 255
294.0705544488252 -15.539063 0.470592 0 0 255
294.0705544488252 -15.140625 0.1098 0 0 255
294.0705544488252 -14.742188 0.172552 0 0 255
294.0705544488252 -14.34375 0.784312 0 0 255
294.0705544488252 -13.945313 0.486272 0 0 255
294.0705544488252 -13.546875 0.470592 0 0 255
294.0705544488252 -13.148438 0.141176 0 0 255
294.0705544488252 -12.75 0 0 0 255
294.0705544488252 -12.351563 0.580392 0 0 255
294.0705544488252 -11.953125 0 0 0 255
294.0705544488252 -11.554688 0.015688 0 0 255
294.0705544488252 -11.15625 0.439216 0 0 255
294.0705544488252 -10.757813 1.819608 0 0 255
294.0705544488252 -10.359375 0.031376 0 0 255
294.0705544488252 -9.960938 0.486272 0 0 255
294.0705544488252 -9.5625 0.360784 0 0 255
294.0705544488252 -9.164063 0.470592 0 0 255
294.0705544488252 -8.765625 0 0 0 255
294.0705544488252 -8.367188 0.643136 0 0 255
294.0705544488252 -7.96875 0.470592 0 0 255
294.0705544488252 -7.570313 0.423528 0 0 255
294.0705544488252 -7.171875 0.062744 0 0 255
294.0705544488252 -6.773438 0.172552 0 0 255
294.0705544488252 -6.375 0.486272 0 0 255
294.0705544488252 -5.976563 0 0 0 255
294.0705544488252 -5.578125 0 0 0 255
294.0705544488252 -5.179688 0.658824 0 0 255
294.0705544488252 -4.78125 0.235296 0 0 255
294.0705544488252 -4.382813 0.015688 0 0 255
294.0705544488252 -3.984375 0 0 0 255
294.0705544488252 -3.585938 0 0 0 255
294.0705544488252 -3.1875 0.047056 0 0 255
294.0705544488252 -2.789063 0.141176 0 0 255
294.0705544488252 -2.390625 0.486272 0 0 255
294.0705544488252 -1.992188 0.282352 0 0 255
294.0705544488252 -1.59375 0.40784 0 0 255
294.0705544488252 -1.195313 0 0 0 255
294.0705544488252 -0.796875 0.062744 0 0 255
294.0705544488252 -0.398438 0.50196 0 0 255
294.0705544488252 0 1.333336 0 0 255
294.0705544488252 0.398437 0.235296 0 0 255
294.0705544488252 0.796875 0.643136 0 0 255
294.0705544488252 1.195312 0.862744 0 0 255
294.0705544488252 1.59375 1.160784 0 0 255
294.0705544488252 1.992187 0 0 0 255
294.0705544488252 2.390625 0.486272 0 0 255
294.0705544488252 2.789062 0.9098 0 0 255
294.0705544488252 3.1875 0 0 0 255
294.0705544488252 3.585937 0.313728 0 0 255
294.0705544488252 3.984375 0.062744 0 0 255
294.0705544488252 4.382812 0.486272 0 0 255
294.0705544488252 4.78125 0.486272 0 0 255
294.0705544488252 5.179687 0.282352 0 0 255
294.0705544488252 5.578125 0.015688 0 0 255
294.0705544488252 5.976562 0.439216 0 0 255
294.0705544488252 6.375 0 0 0 255
294.0705544488252 6.773437 0.423528 0 0 255
294.0705544488252 7.171875 0.20392 0 0 255
294.0705544488252 7.570312 0.8 0 0 255
294.0705544488252 7.96875 0.486272 0 0 255
294.0705544488252 8.367187 0.8 0 0 255
294.0705544488252 8.765625 0.39216 0 0 255
294.0705544488252 9.164062 0.470592 0 0 255
294.0705544488252 9.5625 0.39216 0 0 255
294.0705544488252 9.960937 0.062744 0 0 255
294.0705544488252 10.359375 0.078432 0 0 255
294.0705544488252 10.757812 0.454904 0 0 255
294.0705544488252 11.15625 0.454904 0 0 255
294.0705544488252 11.554687 0.50196 0 0 255
294.0705544488252 11.953125 0.815688 0 0 255
294.0705544488252 12.351562 1.411768 0 0 255
294.0705544488252 12.75 0 0 0 255
294.0705544488252 13.148437 0.345096 0 0 255
294.0705544488252 13.546875 0.486272 0 0 255
294.0705544488252 13.945312 0.29804 0 0 255
294.0705544488252 14.34375 0.062744 0 0 255
294.0705544488252 14.742187 0.50196 0 0 255
294.0705544488252 15.140625 0.423528 0 0 255
294.0705544488252 15.539062 0.078432 0 0 255
294.0705544488252 15.9375 0.345096 0 0 255
294.0705544488252 16.335937 0.486272 0 0 255
294.0705544488252 16.734375 0 0 0 255
294.0705544488252 17.132812 0.486272 0 0 255
294.0705544488252 17.53125 0.40784 0 0 255
294.0705544488252 17.929687 0.015688 0 0 255
294.0705544488252 18.328125 0.815688 0 0 255
294.0705544488252 18.726562 0.09412 0 0 255
294.0705544488252 19.125 0.015688 0 0 255
294.0705544488252 19.523438 0 0 0 255
294.0705544488252 19.921875 0 0 0 255
294.0705544488252 20.320313 0 0 0 255
294.0705544488252 20.71875 0.862744 0 0 255
294.0705544488252 21.117188 0.50196 0 0 255
294.0705544488252 21.515625 0 0 0 255
294.0705544488252 21.914063 0 0 0 255
294.0705544488252 22.3125 0.141176 0 0 255
294.0705544488252 22.710938 0.266664 0 0 255
294.0705544488252 23.109375 0.486272 0 0 255
294.0705544488252 23.507813 0.470592 0 0 255
294.0705544488252 23.90625 0.517648 0 0 255
294.4689924488252 -23.109375 0 0 0 255
294.4689924488252 -22.710938 0 0 0 255
294.4689924488252 -22.3125 0.266664 0 0 255
294.4689924488252 -21.914063 0.360784 0 0 255
294.4689924488252 -21.515625 0.09412 0 0 255
294.4689924488252 -21.117188 0.50196 0 0 255
294.4689924488252 -20.71875 0 0 0 255
294.4689924488252 -20.320313 0 0 0 255
294.4689924488252 -19.921875 0.062744 0 0 255
294.4689924488252 -19.523438 0.062744 0 0 255
294.4689924488252 -19.125 0 0 0 255
294.4689924488252 -18.726563 0.89412 0 0 255
294.4689924488252 -18.328125 0.172552 0 0 255
294.4689924488252 -17.929688 0.235296 0 0 255
294.4689924488252 -17.53125 0.658824 0 0 255
294.4689924488252 -17.132813 0.078432 0 0 255
294.4689924488252 -16.734375 0 0 0 255
294.4689924488252 -16.335938 0.40784 0 0 255
294.4689924488252 -15.9375 0.29804 0 0 255
294.4689924488252 -15.539063 0.078432 0 0 255
294.4689924488252 -15.140625 0.062744 0 0 255
294.4689924488252 -14.742188 0.015688 0 0 255
294.4689924488252 -14.34375 0.031376 0 0 255
294.4689924488252 -13.945313 0.062744 0 0 255
294.4689924488252 -13.546875 0.219608 0 0 255
294.4689924488252 -13.148438 0.50196 0 0 255
294.4689924488252 -12.75 0.486272 0 0 255
294.4689924488252 -12.351563 0.062744 0 0 255
294.4689924488252 -11.953125 0.423528 0 0 255
294.4689924488252 -11.554688 0.486272 0 0 255
294.4689924488252 -11.15625 0.047056 0 0 255
294.4689924488252 -10.757813 0.047056 0 0 255
294.4689924488252 -10.359375 0.266664 0 0 255
294.4689924488252 -9.960938 0.988232 0 0 255
294.4689924488252 -9.5625 0.345096 0 0 255
294.4689924488252 -9.164063 0.470592 0 0 255
294.4689924488252 -8.765625 1.254904 0 0 255
294.4689924488252 -8.367188 0.156864 0 0 255
294.4689924488252 -7.96875 0.376472 0 0 255
294.4689924488252 -7.570313 0.031376 0 0 255
294.4689924488252 -7.171875 0.360784 0 0 255
294.4689924488252 -6.773438 0.031376 0 0 255
294.4689924488252 -6.375 0.015688 0 0 255
294.4689924488252 -5.976563 0.078432 0 0 255
294.4689924488252 -5.578125 0.486272 0 0 255
294.4689924488252 -5.179688 0.768624 0 0 255
294.4689924488252 -4.78125 0.047056 0 0 255
294.4689924488252 -4.382813 0.50196 0 0 255
294.4689924488252 -3.984375 0 0 0 255
294.4689924488252 -3.585938 0.031376 0 0 255
294.4689924488252 -3.1875 0.156864 0 0 255
294.4689924488252 -2.789063 0.062744 0 0 255
294.4689924488252 -2.390625 0.486272 0 0 255
294.4689924488252 -1.992188 0.125488 0 0 255
294.4689924488252 -1.59375 0.329408 0 0 255
294.4689924488252 -1.195313 0.1098 0 0 255
294.4689924488252 -0.796875 0.062744 0 0 255
294.4689924488252 -0.398438 0.50196 0 0 255
294.4689924488252 0 1.333336 0 0 255
294.4689924488252 0.398437 0.235296 0 0 255
294.4689924488252 0.796875 0.59608 0 0 255
294.4689924488252 1.195312 0.9098 0 0 255
294.4689924488252 1.59375 1.176472 0 0 255
294.4689924488252 1.992187 0 0 0 255
294.4689924488252 2.390625 0.486272 0 0 255
294.4689924488252 2.789062 0.40784 0 0 255
294.4689924488252 3.1875 0 0 0 255
294.4689924488252 3.585937 0 0 0 255
294.4689924488252 3.984375 0.125488 0 0 255
294.4689924488252 4.382812 0.266664 0 0 255
294.4689924488252 4.78125 0.470592 0 0 255
294.4689924488252 5.179687 0.50196 0 0 255
294.4689924488252 5.578125 0.439216 0 0 255
294.4689924488252 5.976562 0.533336 0 0 255
294.4689924488252 6.375 0 0 0 255
294.4689924488252 6.773437 0.50196 0 0 255
294.4689924488252 7.171875 0.470592 0 0 255
294.4689924488252 7.570312 0.972552 0 0 255
294.4689924488252 7.96875 0.533336 0 0 255
294.4689924488252 8.367187 0.39216 0 0 255
294.4689924488252 8.765625 0.20392 0 0 255
294.4689924488252 9.164062 0.831376 0 0 255
294.4689924488252 9.5625 0 0 0 255
294.4689924488252 9.960937 0.062744 0 0 255
294.4689924488252 10.359375 0.454904 0 0 255
294.4689924488252 10.757812 0 0 0 255
294.4689924488252 11.15625 0.486272 0 0 255
294.4689924488252 11.554687 0.219608 0 0 255
294.4689924488252 11.953125 0.50196 0 0 255
294.4689924488252 12.351562 0.235296 0 0 255
294.4689924488252 12.75 0.533336 0 0 255
294.4689924488252 13.148437 0.784312 0 0 255
294.4689924488252 13.546875 0.1098 0 0 255
294.4689924488252 13.945312 0.062744 0 0 255
294.4689924488252 14.34375 0.031376 0 0 255
294.4689924488252 14.742187 0.470592 0 0 255
294.4689924488252 15.140625 0.956864 0 0 255
294.4689924488252 15.539062 0 0 0 255
294.4689924488252 15.9375 0.439216 0 0 255
294.4689924488252 16.335937 0 0 0 255
294.4689924488252 16.734375 0 0 0 255
294.4689924488252 17.132812 0.266664 0 0 255
294.4689924488252 17.53125 0.235296 0 0 255
294.4689924488252 17.929687 1.019608 0 0 255
294.4689924488252 18.328125 0.831376 0 0 255
294.4689924488252 18.726562 0 0 0 255
294.4689924488252 19.125 0 0 0 255
294.4689924488252 19.523438 0.847056 0 0 255
294.4689924488252 19.921875 0.1098 0 0 255
294.4689924488252 20.320313 0.8 0 0 255
294.4689924488252 20.71875 0.062744 0 0 255
294.4689924488252 21.117188 0 0 0 255
294.4689924488252 21.515625 0.40784 0 0 255
294.4689924488252 21.914063 0.50196 0 0 255
294.4689924488252 22.3125 0 0 0 255
294.4689924488252 22.710938 0 0 0 255
294.4689924488252 23.109375 0.360784 0 0 255
294.8674294488252 -22.3125 0 0 0 255
294.8674294488252 -21.914063 0 0 0 255
294.8674294488252 -21.515625 0.486272 0 0 255
294.8674294488252 -21.117188 0.50196 0 0 255
294.8674294488252 -20.71875 0.50196 0 0 255
294.8674294488252 -20.320313 0.062744 0 0 255
294.8674294488252 -19.921875 0 0 0 255
294.8674294488252 -19.523438 1.160784 0 0 255
294.8674294488252 -19.125 0.062744 0 0 255
294.8674294488252 -18.726563 0.062744 0 0 255
294.8674294488252 -18.328125 0.047056 0 0 255
294.8674294488252 -17.929688 0.533336 0 0 255
294.8674294488252 -17.53125 0.40784 0 0 255
294.8674294488252 -17.132813 0.219608 0 0 255
294.8674294488252 -16.734375 0.6902 0 0 255
294.8674294488252 -16.335938 0.831376 0 0 255
294.8674294488252 -15.9375 0.847056 0 0 255
294.8674294488252 -15.539063 0.125488 0 0 255
294.8674294488252 -15.140625 0.643136 0 0 255
294.8674294488252 -14.742188 0.439216 0 0 255
294.8674294488252 -14.34375 0.062744 0 0 255
294.8674294488252 -13.945313 0.047056 0 0 255
294.8674294488252 -13.546875 0.470592 0 0 255
294.8674294488252 -13.148438 0.29804 0 0 255
294.8674294488252 -12.75 0 0 0 255
294.8674294488252 -12.351563 1.00392 0 0 255
294.8674294488252 -11.953125 0.345096 0 0 255
294.8674294488252 -11.554688 0 0 0 255
294.8674294488252 -11.15625 0.015688 0 0 255
294.8674294488252 -10.757813 0.486272 0 0 255
294.8674294488252 -10.359375 0.141176 0 0 255
294.8674294488252 -9.960938 1.20784 0 0 255
